11.799501 8.806191 -3.493371 0.000000 0.000000 0.000000 
-8.197633 9.999267 -3.420323 0.000000 0.000000 0.000000 
-6.597630 9.999555 -3.565479 0.000000 0.000000 0.000000 
-5.260849 9.999516 -3.894366 0.000000 0.000000 0.000000 
-3.306535 9.999495 -3.169240 0.000000 0.000000 0.000000 
7.423060 9.999597 -3.444577 0.000000 0.000000 0.000000 
9.070394 9.999636 -3.364267 0.000000 0.000000 0.000000 
10.764064 9.999467 -3.436397 0.000000 0.000000 0.000000 
11.799677 9.999133 -3.537862 0.000000 0.000000 0.000000 
-8.197683 -9.999428 -1.745003 0.000000 0.000000 0.000000 
-8.199496 -9.997220 -2.502029 0.000000 0.000000 0.000000 
-6.595037 -9.999610 -2.230302 0.000000 0.000000 0.000000 
-4.649723 -9.999649 -2.795427 0.000000 0.000000 0.000000 
-3.440007 -9.999244 -2.949142 0.000000 0.000000 0.000000 
-3.868423 -9.999454 -2.017212 0.000000 0.000000 0.000000 
7.565646 -9.999818 -1.685884 0.000000 0.000000 0.000000 
7.283952 -9.999390 -2.478088 0.000000 0.000000 0.000000 
9.128228 -9.999671 -1.868508 0.000000 0.000000 0.000000 
10.770383 -9.999474 -2.114452 0.000000 0.000000 0.000000 
11.799734 -9.999207 -2.550586 0.000000 0.000000 0.000000 
11.799602 -8.809131 -2.220782 0.000000 0.000000 0.000000 
-8.199553 -7.699334 -2.066964 0.000000 0.000000 0.000000 
-3.565838 -8.849984 -2.726726 0.000000 0.000000 0.000000 
-3.981808 -8.869972 -1.681317 0.000000 0.000000 0.000000 
7.357527 -7.945731 -2.300289 0.000000 0.000000 0.000000 
11.799492 -7.582936 -2.035713 0.000000 0.000000 0.000000 
-8.199670 -6.544492 -1.424438 0.000000 0.000000 0.000000 
-3.586994 -6.740130 -2.686603 0.000000 0.000000 0.000000 
-3.979078 -5.762631 -1.724067 0.000000 0.000000 0.000000 
7.468341 -6.584023 -1.994340 0.000000 0.000000 0.000000 
11.799441 -6.588094 -1.980923 0.000000 0.000000 0.000000 
-8.199616 -5.761811 -1.749310 0.000000 0.000000 0.000000 
-7.265851 -5.669053 -2.041334 0.000000 0.000000 0.000000 
-4.827281 -5.710837 -1.961370 0.000000 0.000000 0.000000 
7.488700 -5.689359 -1.953416 0.000000 0.000000 0.000000 
8.877826 -5.711863 -1.911163 0.000000 0.000000 0.000000 
11.076009 -5.754364 -1.788857 0.000000 0.000000 0.000000 
11.799593 -5.722426 -1.841136 0.000000 0.000000 0.000000 
-8.199502 5.793691 -1.643805 0.000000 0.000000 0.000000 
-8.199743 6.374563 -2.467070 0.000000 0.000000 0.000000 
-7.022589 5.653299 -2.069438 0.000000 0.000000 0.000000 
-3.776528 5.589815 -2.234186 0.000000 0.000000 0.000000 
-3.676234 5.457607 -2.497708 0.000000 0.000000 0.000000 
-3.988530 5.787000 -1.644971 0.000000 0.000000 0.000000 
7.592824 5.797828 -1.611118 0.000000 0.000000 0.000000 
7.344422 6.103498 -2.323589 0.000000 0.000000 0.000000 
9.281547 5.755380 -1.784792 0.000000 0.000000 0.000000 
11.067721 5.747159 -1.828817 0.000000 0.000000 0.000000 
11.799597 5.699470 -1.923620 0.000000 0.000000 0.000000 
11.799562 6.668055 -2.240345 0.000000 0.000000 0.000000 
-8.199613 7.689158 -2.021921 0.000000 0.000000 0.000000 
-3.569395 7.419164 -2.728603 0.000000 0.000000 0.000000 
-3.960927 7.963889 -1.772748 0.000000 0.000000 0.000000 
7.352831 7.922623 -2.310428 0.000000 0.000000 0.000000 
11.799465 7.595367 -2.151416 0.000000 0.000000 0.000000 
-8.199580 9.996964 -1.438756 0.000000 0.000000 0.000000 
-3.481771 9.079801 -2.888183 0.000000 0.000000 0.000000 
-3.914362 9.998879 -1.964471 0.000000 0.000000 0.000000 
7.413295 9.998059 -2.149808 -37010256282288914000.000000 0.000000 0.000000 
11.799539 8.808967 -2.098512 0.000000 0.000000 0.000000 
-8.197672 9.999278 -2.038773 0.000000 0.000000 0.000000 
-6.647517 9.999584 -2.130324 0.000000 0.000000 0.000000 
-4.890908 9.999578 -2.337504 0.000000 0.000000 0.000000 
7.434996 9.999544 -2.104868 0.000000 0.000000 0.000000 
8.858668 9.999474 -2.148045 0.000000 0.000000 0.000000 
10.765622 9.999448 -2.063958 0.000000 0.000000 0.000000 
11.799701 9.999151 -2.157599 0.000000 0.000000 0.000000 
-8.197706 -9.999446 -0.370404 0.000000 0.000000 0.000000 
-8.199528 -9.997251 -1.119840 0.000000 0.000000 0.000000 
-6.646825 -9.999621 -0.814520 0.000000 0.000000 0.000000 
-5.133657 -9.999701 -1.318348 0.000000 0.000000 0.000000 
-4.160445 -9.999633 -0.859341 0.000000 0.000000 0.000000 
7.593559 -9.998395 -1.608640 0.000000 0.000000 0.000000 
7.750620 -9.999620 -0.840944 0.000000 0.000000 0.000000 
8.902712 -9.999626 -0.428918 0.000000 0.000000 0.000000 
10.765934 -9.999448 -0.697232 0.000000 0.000000 0.000000 
11.799752 -9.999210 -1.169555 0.000000 0.000000 0.000000 
11.799613 -8.813197 -0.837518 0.000000 0.000000 0.000000 
-8.199554 -7.700875 -0.652790 0.000000 0.000000 -37010256282288914000.000000 
-4.197826 -8.771147 -0.561384 0.000000 0.000000 0.000000 
7.650217 -7.221619 -1.390286 0.000000 0.000000 0.000000 
7.788566 -8.607541 -0.615467 0.000000 0.000000 0.000000 
11.799491 -7.640605 -0.629750 0.000000 0.000000 0.000000 
-8.199769 -6.547227 -0.044602 0.000000 0.000000 0.000000 
-4.195515 -5.997615 -0.590282 0.000000 0.000000 0.000000 
7.674257 -5.872370 -1.270953 0.000000 0.000000 0.000000 
7.818276 -6.015651 -0.297058 0.000000 0.000000 0.000000 
11.799412 -6.650712 -0.593172 0.000000 0.000000 0.000000 
-8.199703 -6.009687 -0.459218 0.000000 0.000000 0.000000 
-6.831578 -5.986816 -0.775560 0.000000 0.000000 0.000000 
-5.176999 -5.998647 -0.699936 0.000000 0.000000 0.000000 
8.704158 -5.990420 -0.735459 0.000000 0.000000 0.000000 
10.941131 -5.997840 -0.631741 0.000000 0.000000 0.000000 
11.799377 -5.963696 -0.834179 0.000000 0.000000 0.000000 
-8.199658 6.020744 -0.310751 0.000000 0.000000 0.000000 
-8.199599 6.552494 -1.177571 0.000000 0.000000 0.000000 
-6.829805 5.970607 -0.831946 0.000000 0.000000 0.000000 
-4.985057 5.903795 -1.184989 0.000000 0.000000 0.000000 
-4.190019 5.985622 -0.621282 0.000000 0.000000 0.000000 
7.630058 6.594994 -1.480723 0.000000 0.000000 0.000000 
7.769473 5.964656 -0.740573 0.000000 0.000000 0.000000 
8.809499 6.020234 -0.452149 0.000000 0.000000 0.000000 
11.001914 5.991692 -0.632089 0.000000 0.000000 0.000000 
11.799571 5.950428 -0.899059 0.000000 0.000000 0.000000 
11.799513 6.586768 -0.676583 0.000000 0.000000 0.000000 
-8.199570 7.696561 -0.663149 0.000000 0.000000 0.000000 
-4.192334 8.453691 -0.661321 0.000000 0.000000 0.000000 
7.649990 8.488600 -1.404368 0.000000 0.000000 0.000000 
7.801488 7.392091 -0.467919 0.000000 0.000000 0.000000 
11.799460 7.596734 -0.703268 0.000000 0.000000 0.000000 
-8.199554 9.996956 -0.059296 0.000000 0.000000 0.000000 
-4.208280 9.999487 -0.457902 0.000000 0.000000 0.000000 
7.632094 9.999632 -1.440138 0.000000 0.000000 0.000000 
7.824550 9.999273 -0.314720 0.000000 0.000000 0.000000 
11.799555 8.812249 -0.723596 0.000000 0.000000 0.000000 
-8.197688 9.999276 -0.661298 0.000000 0.000000 0.000000 
-6.633120 9.999596 -0.731441 0.000000 0.000000 0.000000 
-5.208707 9.999684 -0.783758 0.000000 0.000000 0.000000 
8.773975 9.999633 -0.861566 0.000000 0.000000 0.000000 
10.802381 9.999455 -0.713570 -0.000000 0.000000 0.000000 
11.799714 9.999182 -0.785225 0.000000 0.000000 0.000000 
-8.197686 -9.999451 1.010939 0.000000 0.000000 0.000000 
-8.199541 -9.997275 0.260243 0.000000 0.000000 0.000000 
-6.615919 -9.999615 0.589153 0.000000 0.000000 0.000000 
-5.262418 -9.999700 -0.007006 0.000000 0.000000 0.000000 
-4.209271 -9.999540 0.433489 0.000000 0.000000 0.000000 
8.779774 -9.999577 1.415871 0.000000 0.000000 0.000000 
7.824505 -9.999371 0.331457 0.000000 0.000000 0.000000 
10.742769 -9.999483 0.797123 0.000000 0.000000 0.000000 
11.799760 -9.999220 0.212846 0.000000 0.000000 0.000000 
11.799611 -8.815681 0.536668 0.000000 0.000000 0.000000 
-8.199557 -7.696405 0.725159 0.000000 0.000000 0.000000 
-4.193613 -8.468247 0.649148 -170768558954329390000000000000000000000.000000 -170768558954329390000000000000000000000.000000 -170768558954329390000000000000000000000.000000 
7.798675 -7.350070 0.498136 -170768558954329390000000000000000000000.000000 -170768558954329390000000000000000000000.000000 -170768558954329390000000000000000000000.000000 
11.799520 -7.637108 0.626647 -170768558954329390000000000000000000000.000000 -170768558954329390000000000000000000000.000000 -170768558954329390000000000000000000000.000000 
-8.199504 -6.481462 1.294399 -170768558954329390000000000000000000000.000000 -170768558954329390000000000000000000000.000000 -170768558954329390000000000000000000000.000000 
-4.199493 -5.996171 0.544490 -170768558954329390000000000000000000000.000000 -170768558954329390000000000000000000000.000000 -170768558954329390000000000000000000000.000000 
7.760544 -5.957045 0.805830 -170768558954329390000000000000000000000.000000 -170768558954329390000000000000000000000.000000 -170768558954329390000000000000000000000.000000 
11.799439 -6.607526 0.605803 -170768558954329390000000000000000000000.000000 -170768558954329390000000000000000000000.000000 -170768558954329390000000000000000000000.000000 
-8.199629 -5.957602 0.895889 -170768558954329390000000000000000000000.000000 -170768558954329390000000000000000000000.000000 -170768558954329390000000000000000000000.000000 
-6.777077 -6.005857 0.596030 -170768558954329390000000000000000000000.000000 -170768558954329390000000000000000000000.000000 -170768558954329390000000000000000000000.000000 
-5.031775 -5.996729 0.636892 -170768558954329390000000000000000000000.000000 -170768558954329390000000000000000000000.000000 -170768558954329390000000000000000000000.000000 
8.938672 -5.986028 0.794650 -170768558954329390000000000000000000000.000000 -170768558954329390000000000000000000000.000000 -170768558954329390000000000000000000000.000000 
10.848825 -5.997306 0.635572 -170768558954329390000000000000000000000.000000 -170768558954329390000000000000000000000.000000 -170768558954329390000000000000000000000.000000 
11.799419 -6.008822 0.373658 -170768558954329390000000000000000000000.000000 -170768558954329390000000000000000000000.000000 -170768558954329390000000000000000000000.000000 
-8.200001 5.933025 1.035385 -170768558954329390000000000000000000000.000000 -170768558954329390000000000000000000000.000000 -170768558954329390000000000000000000000.000000 
-8.199828 6.552780 0.180893 -170768558954329390000000000000000000000.000000 -170768558954329390000000000000000000000.000000 -170768558954329390000000000000000000000.000000 
-6.764019 6.001985 0.588188 -170768558954329390000000000000000000000.000000 -170768558954329390000000000000000000000.000000 -170768558954329390000000000000000000000.000000 
-5.129140 6.026583 0.126953 -170768558954329390000000000000000000000.000000 -170768558954329390000000000000000000000.000000 -170768558954329390000000000000000000000.000000 
-4.200074 6.001789 0.516684 -170768558954329390000000000000000000000.000000 -170768558954329390000000000000000000000.000000 -170768558954329390000000000000000000000.000000 
8.849153 5.925123 1.118087 -170768558954329390000000000000000000000.000000 -170768558954329390000000000000000000000.000000 -170768558954329390000000000000000000000.000000 
7.812254 6.013496 0.354384 -170768558954329390000000000000000000000.000000 -170768558954329390000000000000000000000.000000 -170768558954329390000000000000000000000.000000 
10.911695 5.988643 0.664857 0.000000 0.000000 0.000000 
11.799494 6.011581 0.171386 0.000000 0.000000 0.000000 
11.799451 6.576842 0.497613 0.000000 0.000000 0.000000 
-8.199492 7.685225 0.709118 0.000000 0.000000 0.000000 
-4.198419 8.757403 0.554094 0.000000 0.000000 0.000000 
7.784419 8.616837 0.641178 0.000000 0.000000 0.000000 
11.799432 7.609749 0.578961 0.000000 0.000000 0.000000 
-8.199509 9.996929 1.321673 0.000000 0.000000 0.000000 
-4.164239 9.999508 0.836725 0.000000 0.000000 0.000000 
7.746129 9.999648 0.873186 0.000000 0.000000 0.000000 
11.799561 8.808537 0.648856 0.000000 0.000000 0.000000 
-8.197680 9.999266 0.730803 0.000000 0.000000 0.000000 
-6.542542 9.999572 0.734784 0.000000 0.000000 0.000000 
-5.273170 9.999640 0.387865 0.000000 0.000000 0.000000 
8.985755 9.999613 1.158257 0.000000 0.000000 0.000000 
10.688242 9.999451 0.658293 0.000000 0.000000 0.000000 
11.799711 9.999186 0.598196 0.000000 0.000000 0.000000 
-8.197648 -9.999448 2.395411 0.000000 0.000000 0.000000 
-8.199549 -9.997281 1.640028 0.000000 0.000000 0.000000 
-6.605830 -9.999605 2.045255 0.000000 0.000000 0.000000 
-4.876506 -9.999592 1.610004 -0.000000 10653104931908798000000000000000000000.000000 0.000000 
-3.920527 -9.998597 1.946740 0.000000 0.000000 0.000000 
7.626151 -9.999424 1.463730 0.000000 0.000000 0.000000 
7.832772 -9.999577 2.421417 0.000000 0.000000 0.000000 
7.411798 -9.999217 2.153311 0.000000 0.000000 0.000000 
9.377962 -9.999535 2.682787 0.000000 0.000000 0.000000 
10.740405 -9.999465 2.167935 0.000000 0.000000 0.000000 
11.799745 -9.999239 1.599765 0.000000 0.000000 0.000000 
11.799598 -8.813943 1.913549 0.000000 0.000000 0.000000 
-8.199590 -7.683833 2.085014 0.000000 0.000000 0.000000 
-3.964387 -7.981873 1.762923 0.000000 0.000000 0.000000 
7.643512 -8.503314 1.425363 0.000000 0.000000 0.000000 
7.356836 -7.937525 2.302709 0.000000 0.000000 0.000000 
11.799526 -7.607205 1.969600 0.000000 0.000000 0.000000 
-8.199491 -6.327385 2.585447 0.000000 0.000000 0.000000 
-4.001865 -5.805374 1.600292 0.000000 0.000000 0.000000 
7.625906 -6.541778 1.489108 0.000000 0.000000 0.000000 
7.343409 -6.082851 2.326025 0.000000 0.000000 0.000000 
11.799542 -6.621174 1.995070 0.000000 0.000000 0.000000 
-8.199359 -5.638630 2.111626 0.000000 0.000000 0.000000 
-6.985033 -5.734489 1.856313 0.000000 -0.000000 -0.501383 
-3.880680 -5.704399 1.957182 0.000000 0.000000 0.000000 
7.530046 -5.749290 1.817499 0.000000 0.000000 0.000000 
9.581915 -5.606774 2.200391 0.000000 0.000000 0.000000 
11.798736 -5.704845 1.942552 0.000000 0.000000 0.000000 
11.799788 -5.870092 1.271592 0.000000 0.000000 0.000000 
-8.199745 5.649374 2.050942 0.000000 0.000000 0.000000 
-8.199661 6.474492 1.546607 0.000000 0.000000 0.000000 
-7.044656 5.711822 1.918720 0.000000 0.000000 0.000000 
-4.950350 5.807649 1.648982 0.000000 0.000000 0.000000 
-3.988319 5.772532 1.692573 0.000000 0.000000 0.000000 
7.660441 5.858665 1.332667 0.000000 0.000000 0.000000 
7.433918 5.641847 2.093051 0.000000 0.000000 0.000000 
7.462678 6.582858 2.009177 0.000000 0.000000 0.000000 
9.206911 5.572658 2.257581 0.000000 0.000000 0.000000 
11.798150 5.702778 1.949545 0.000000 0.000000 0.000000 
11.799784 5.911854 1.076341 0.000000 0.000000 0.000000 
11.799452 6.649951 1.729318 0.000000 0.000000 0.000000 
-8.199503 7.682948 2.117119 0.000000 0.000000 0.000000 
-3.983454 8.864017 1.676720 0.000000 0.000000 0.000000 
7.648629 7.220486 1.397030 0.000000 0.000000 0.000000 
7.356742 7.947940 2.301305 0.000000 0.000000 0.000000 
11.799465 7.579891 1.948669 0.000000 0.000000 0.000000 
-8.199507 9.997415 2.704021 0.000000 0.000000 0.000000 
-3.876131 9.999337 1.996297 0.000000 0.000000 0.000000 
7.588977 9.998880 1.628080 0.000000 0.000000 0.000000 
7.244533 9.999221 2.553261 0.000000 0.000000 0.000000 
11.799548 8.805694 2.031880 0.000000 0.000000 0.000000 
-8.197663 9.999352 2.115082 0.000000 0.000000 0.000000 
-6.666515 9.999545 2.026457 0.000000 0.000000 0.000000 
-4.659828 9.999501 2.286154 0.000000 0.000000 0.000000 
7.997352 9.999605 2.050205 0.000000 0.000000 0.000000 
9.524428 9.999669 2.505622 0.000000 0.000000 0.000000 
10.758471 9.999419 2.153772 0.000000 0.000000 0.000000 
11.799698 9.999148 1.989041 0.000000 0.000000 0.000000 
-8.197604 -9.999436 3.777625 0.000000 0.000000 0.000000 
-8.199542 -9.997276 3.018459 0.000000 0.000000 0.000000 
-6.613389 -9.999603 3.488493 0.000000 0.000000 0.000000 
-4.903197 -9.999599 3.343227 0.000000 0.000000 0.000000 
-3.484757 -9.032300 2.883624 0.000000 0.000000 0.000000 
-3.232062 -9.999564 3.306391 0.000000 0.000000 0.000000 
-2.898742 -9.403237 3.752528 0.000000 0.000000 0.000000 
7.514289 -9.999701 3.862231 0.000000 0.000000 0.000000 
6.952609 -9.999518 3.119586 0.000000 0.000000 0.000000 
9.228271 -9.999551 3.612877 0.000000 0.000000 0.000000 
10.791119 -9.999423 3.447059 0.000000 0.000000 0.000000 
11.799726 -9.999217 2.977890 0.000000 0.000000 0.000000 
11.799569 -8.813658 3.304755 0.000000 0.000000 0.000000 
-8.199584 -7.670146 3.460722 0.000000 0.000000 0.000000 
-3.574334 -7.421838 2.720092 0.000000 0.000000 0.000000 
-2.955174 -8.181083 3.689918 0.000000 0.000000 0.000000 
6.929611 -7.282344 3.145288 0.000000 0.000000 0.000000 
11.799459 -7.601341 3.513390 0.000000 0.000000 0.000000 
-8.199472 -6.097076 4.004302 0.000000 0.000000 0.000000 
-3.668883 -6.094775 2.507122 0.000000 0.000000 0.000000 
-3.106965 -6.651191 3.490491 0.000000 0.000000 0.000000 
6.989048 -5.820842 3.030916 0.000000 0.000000 0.000000 
11.799523 -6.413495 3.838398 0.000000 0.000000 0.000000 
-8.199566 -5.202332 3.007745 0.000000 0.000000 0.000000 
-7.310356 -5.254818 2.941412 0.000000 0.000000 0.000000 
-4.878685 -5.253971 2.941320 0.000000 0.000000 0.000000 
-3.437903 -5.216196 2.984052 0.000000 -170768558954329390000000000000000000000.000000 0.000000 
7.142684 -5.352290 2.759473 0.000000 0.000000 0.000000 
9.171059 -5.224774 2.997767 0.000000 0.000000 0.000000 
11.799118 -5.143877 3.134670 0.000000 0.000000 0.000000 
11.799718 -5.521446 3.394627 0.000000 0.000000 0.000000 
-8.199678 5.163284 3.076580 0.000000 0.000000 0.000000 
-8.199640 6.266432 3.062677 0.000000 0.000000 0.000000 
-8.197410 5.233962 2.990004 0.000000 0.000000 0.000000 
-5.655044 5.262937 2.932223 0.000000 0.000000 0.000000 
-3.589515 6.744640 2.681872 0.000000 0.000000 0.000000 
-3.526234 5.344194 2.796168 0.000000 0.000000 0.000000 
-3.123183 6.025649 3.453053 0.000000 0.000000 0.000000 
7.115854 5.316240 2.797781 0.000000 0.000000 0.000000 
7.069099 6.633917 2.914916 0.000000 0.000000 0.000000 
8.659121 5.242633 2.947301 0.000000 0.000000 0.000000 
10.493149 5.202950 3.027650 0.000000 0.000000 0.000000 
11.799786 5.280582 2.874469 0.000000 0.000000 0.000000 
11.799526 6.204838 3.562408 0.000000 0.000000 0.000000 
-8.199533 7.669547 3.572965 0.000000 0.000000 0.000000 
-3.572335 8.836848 2.712472 0.000000 0.000000 0.000000 
-3.035518 7.339932 3.584669 0.000000 0.000000 0.000000 
6.870486 8.661427 3.243575 0.000000 0.000000 0.000000 
11.799454 7.538053 3.402397 0.000000 0.000000 0.000000 
-8.199501 9.997368 4.086070 0.000000 0.000000 0.000000 
-3.441025 9.999057 2.948609 0.000000 0.000000 0.000000 
-3.043382 9.046356 3.571433 0.000000 0.000000 0.000000 
6.829948 9.999537 3.286023 0.000000 0.000000 0.000000 
11.799528 8.805180 3.408148 0.000000 0.000000 0.000000 
-8.197643 9.999428 3.486793 0.000000 0.000000 0.000000 
-6.608270 9.999547 3.379310 0.000000 0.000000 0.000000 
-4.656811 9.999462 3.515515 0.000000 0.000000 0.000000 
-2.852458 9.999164 3.816640 0.000000 0.000000 0.000000 
7.679753 9.999552 3.556726 0.000000 0.000000 0.000000 
9.301382 9.999568 3.488949 0.000000 0.000000 0.000000 
10.795737 9.999445 3.493431 0.000000 0.000000 0.000000 
11.799670 9.999133 3.364438 0.000000 0.000000 0.000000 
-8.197533 -9.999407 5.158651 0.000000 0.000000 0.000000 
-8.199509 -9.997257 4.397439 0.000000 0.000000 0.000000 
-6.614145 -9.999590 4.871537 0.000000 0.000000 0.000000 
-4.890576 -9.999644 4.716255 0.000000 0.000000 0.000000 
-3.387088 -9.999677 4.570394 0.000000 0.000000 0.000000 
-2.261416 -8.855969 4.442127 0.000000 0.000000 0.000000 
-2.437099 -9.999797 4.273759 0.000000 0.000000 0.000000 
-1.475395 -9.998314 5.060349 0.000000 0.000000 0.000000 
6.314816 -9.999750 3.969246 0.000000 0.000000 0.000000 
6.372498 -9.999758 5.163692 0.000000 0.000000 0.000000 
5.514348 -9.999109 4.746866 0.000000 0.000000 0.000000 
7.894446 -9.999682 5.250923 0.000000 0.000000 0.000000 
9.104705 -9.999614 4.976558 0.000000 0.000000 0.000000 
10.778880 -9.999447 4.779432 0.000000 0.000000 0.000000 
11.799697 -9.999177 4.349587 0.000000 0.000000 0.000000 
11.799519 -8.811727 4.694307 0.000000 0.000000 0.000000 
-8.199552 -7.677637 4.819081 0.000000 0.000000 0.000000 
-2.326875 -7.348844 4.383356 0.000000 0.000000 0.000000 
-1.414021 -8.229893 5.094482 0.000000 0.000000 0.000000 
6.304777 -8.513800 3.997373 0.000000 0.000000 0.000000 
5.519537 -7.706742 4.738986 0.000000 0.000000 0.000000 
11.799383 -7.601138 4.959494 0.000000 0.000000 0.000000 
-8.199544 -6.518438 5.266372 0.000000 0.000000 0.000000 
-2.592307 -5.674323 4.129151 0.000000 0.000000 0.000000 
-1.572373 -6.586298 4.992676 0.000000 0.000000 0.000000 
6.379261 -6.271595 3.913774 -170768558954329390000000000000000000000.000000 0.000000 0.000000 
5.564940 -5.660277 4.694994 0.000000 0.000000 0.000000 
11.799389 -6.610602 5.180979 0.000000 0.000000 0.000000 
-8.199607 -4.633092 3.829645 0.000000 0.000000 0.000000 
-8.199579 -4.940305 5.222962 0.000000 0.000000 0.000000 
-8.198113 -4.658551 3.816161 0.000000 0.000000 0.000000 
-5.562227 -4.641238 3.832510 0.000000 0.000000 0.000000 
-2.897785 -4.716269 3.746663 0.000000 0.000000 0.000000 
-2.415937 -4.210419 4.282786 0.000000 0.000000 0.000000 
-1.687272 -5.075503 4.909489 0.000000 0.000000 0.000000 
6.191103 -4.383311 4.104564 0.000000 0.000000 0.000000 
5.777611 -3.965346 4.504145 0.000000 0.000000 0.000000 
6.656023 -4.862808 3.557405 0.000000 0.000000 0.000000 
8.718608 -4.682957 3.789617 0.000000 0.000000 0.000000 
10.767363 -4.562404 3.922218 0.000000 0.000000 0.000000 
11.799873 -4.548215 3.924178 0.000000 0.000000 0.000000 
11.799562 -5.320532 5.055294 0.000000 0.000000 0.000000 
-8.199165 -3.881455 4.612430 0.000000 0.000000 0.000000 
-6.509099 -3.935783 4.554987 0.000000 0.000000 0.000000 
-4.377144 -3.943481 4.548967 0.000000 0.000000 0.000000 
-2.163820 -3.983776 4.510769 0.000000 0.000000 0.000000 
-1.936068 -3.714067 4.715118 0.000000 0.000000 0.000000 
5.914590 -4.138125 4.370803 0.000000 0.000000 0.000000 
8.125601 -3.986704 4.517064 0.000000 0.000000 0.000000 
10.043089 -3.834943 4.643246 0.000000 0.000000 0.000000 
11.799370 -3.964401 4.528506 0.000000 0.000000 0.000000 
11.799733 -4.273866 5.016637 0.000000 0.000000 0.000000 
-8.199439 4.553471 3.948913 0.000000 0.000000 0.000000 
-8.199603 3.820593 4.636240 0.000000 0.000000 0.000000 
-8.199636 4.944487 4.649948 0.000000 0.000000 0.000000 
-6.525842 4.589891 3.898226 0.000000 0.000000 0.000000 
-8.198012 3.793169 4.675235 0.000000 0.000000 0.000000 
-4.569866 4.691994 3.773846 0.000000 0.000000 0.000000 
-5.742564 3.892035 4.593493 0.000000 0.000000 0.000000 
-2.888156 4.688345 3.772836 0.000000 0.000000 0.000000 
-3.804736 3.994417 4.504154 0.000000 0.000000 0.000000 
-2.265120 4.988791 4.426857 0.000000 0.000000 0.000000 
-2.240862 4.052150 4.446306 0.000000 0.000000 0.000000 
-1.783468 4.621441 4.826989 0.000000 0.000000 0.000000 
6.324891 4.535066 3.956394 0.000000 0.000000 0.000000 
5.781214 3.975436 4.501049 -170141183460469230000000000000000000000.000000 -170141183460469230000000000000000000000.000000 -170141183460469230000000000000000000000.000000 
5.694842 5.037789 4.596434 0.000000 0.000000 0.000000 
7.607679 4.786399 3.656248 0.000000 0.000000 0.000000 
6.934111 4.000844 4.495538 0.000000 0.000000 0.000000 
9.714689 4.656276 3.814215 0.000000 0.000000 0.000000 
8.652557 3.995179 4.507631 0.000000 0.000000 0.000000 
11.799059 4.635889 3.852334 0.000000 0.000000 0.000000 
10.731492 3.947613 4.539780 0.000000 0.000000 0.000000 
11.799675 4.923650 4.178159 0.000000 0.000000 0.000000 
11.799873 3.935280 4.538691 0.000000 0.000000 0.000000 
11.799614 4.736063 5.045347 0.000000 0.000000 0.000000 
-8.199549 6.251171 4.807276 0.000000 0.000000 0.000000 
-2.413476 6.279981 4.301875 0.000000 0.000000 0.000000 
-1.572040 5.738152 4.986212 0.000000 0.000000 0.000000 
6.585310 4.772292 3.674067 0.000000 0.000000 0.000000 
5.582396 6.822455 4.694520 0.000000 0.000000 0.000000 
11.799458 6.217318 4.913799 0.000000 0.000000 0.000000 
-8.199501 7.659194 5.002742 0.000000 0.000000 0.000000 
-2.355846 8.124399 4.355531 0.000000 0.000000 0.000000 
-1.519149 7.398329 5.026831 0.000000 0.000000 0.000000 
6.312459 7.750959 3.994457 0.000000 0.000000 0.000000 
5.399946 8.697538 4.829699 0.000000 0.000000 -170768558954329390000000000000000000000.000000 
11.799453 7.525975 4.752891 0.000000 0.000000 0.000000 
-8.199476 9.997221 5.467452 0.000000 0.000000 0.000000 
-2.407282 9.595368 4.296461 0.000000 0.000000 0.000000 
-1.555586 9.016800 5.002069 0.000000 0.000000 0.000000 
6.196377 9.999150 4.122355 0.000000 0.000000 0.000000 
5.359331 9.999829 4.844940 0.000000 0.000000 0.000000 
11.799500 8.803800 4.783926 0.000000 0.000000 0.000000 
-8.197597 9.999513 4.869787 0.000000 0.000000 0.000000 
-6.603934 9.999537 4.755031 0.000000 0.000000 0.000000 
-4.828739 9.999626 4.711396 0.000000 0.000000 0.000000 
-3.150458 9.999444 4.755021 0.000000 0.000000 0.000000 
-1.955161 9.999261 4.709900 0.000000 0.000000 0.000000 
6.579113 9.999763 4.931122 0.000000 0.000000 0.000000 
8.032317 9.999701 5.081255 0.000000 0.000000 0.000000 
9.130602 9.999653 4.918978 0.000000 0.000000 0.000000 
10.772133 9.999453 4.835412 0.000000 0.000000 0.000000 
11.799621 9.999120 4.740206 0.000000 0.000000 0.000000 
-8.198836 -9.999576 6.599982 0.000000 0.000000 0.000000 
-8.199536 -9.997142 5.790784 0.000000 0.000000 0.000000 
-6.593763 -9.999537 6.273440 0.000000 0.000000 0.000000 
-4.891569 -9.999576 6.165531 0.000000 0.000000 0.000000 
-3.407455 -9.999640 6.159891 0.000000 0.000000 0.000000 
-2.140768 -9.999674 6.057826 0.000000 0.000000 0.000000 
-0.253161 -9.996292 5.681166 0.000000 0.000000 0.000000 
-0.732826 -9.999672 5.443184 0.000000 0.000000 0.000000 
1.168884 -9.999240 5.995071 0.000000 0.000000 0.000000 
0.893293 -9.999910 5.943188 0.000000 0.000000 0.000000 
2.445173 -9.998594 5.992521 0.000000 0.000000 0.000000 
2.018133 -9.999987 6.001723 0.000000 0.000000 0.000000 
3.710248 -9.999373 5.709534 0.000000 0.000000 0.000000 
3.452814 -9.999612 6.443748 0.000000 0.000000 0.000000 
4.602591 -9.999867 5.316617 0.000000 0.000000 0.000000 
5.026127 -9.999751 6.284465 0.000000 0.000000 0.000000 
6.527148 -9.999660 6.639332 0.000000 0.000000 0.000000 
7.692792 -9.999639 6.365069 0.000000 0.000000 0.000000 
9.155256 -9.999598 6.332682 0.000000 0.000000 0.000000 
10.780894 -9.999430 6.153181 0.000000 0.000000 0.000000 
11.799646 -9.999138 5.728943 0.000000 0.000000 0.000000 
11.799455 -8.807916 6.074277 0.000000 0.000000 0.000000 
-8.199540 -7.701340 6.132294 -170141183460469230000000000000000000000.000000 0.000000 0.000000 
-0.465143 -7.326340 5.585181 0.000000 0.000000 0.000000 
0.806051 -7.705533 5.947732 0.000000 0.000000 0.000000 
2.167661 -7.864732 6.018025 0.000000 0.000000 0.000000 
3.433831 -8.227327 5.801888 0.000000 0.000000 0.000000 
4.556376 -8.772090 5.355238 0.000000 0.000000 0.000000 
11.799363 -7.562963 6.270380 0.000000 0.000000 0.000000 
-8.199543 -6.317929 6.325528 0.000000 0.000000 0.000000 
-0.569042 -5.741171 5.545783 0.000000 0.000000 0.000000 
0.715764 -6.124307 5.935107 0.000000 0.000000 0.000000 
2.085078 -6.265229 6.028141 0.000000 0.000000 0.000000 
3.470301 -6.420700 5.801060 0.000000 0.000000 0.000000 
4.564419 -6.928053 5.354861 0.000000 0.000000 0.000000 
11.799391 -6.329367 6.303913 0.000000 0.000000 0.000000 
-8.199546 -5.187172 6.618011 0.000000 0.000000 0.000000 
-0.773766 -4.194862 5.462619 0.000000 0.000000 0.000000 
0.651937 -4.668273 5.928223 0.000000 0.000000 0.000000 
2.091592 -4.790364 6.030248 0.000000 0.000000 0.000000 
3.507766 -4.776062 5.794158 0.000000 0.000000 0.000000 
4.796176 -4.906463 5.236584 0.000000 0.000000 0.000000 
11.799401 -5.285198 6.519322 0.000000 0.000000 0.000000 
-8.199609 -2.849556 5.297946 0.000000 -170768558954329390000000000000000000000.000000 0.000000 
-8.199624 -3.664600 6.327331 0.000000 0.000000 0.000000 
-7.251609 -3.079662 5.171209 0.000000 0.000000 0.000000 
-4.840324 -3.046456 5.196449 0.000000 0.000000 0.000000 
-3.173756 -3.090742 5.169651 0.000000 0.000000 0.000000 
-1.333320 -3.167730 5.128797 0.000000 0.000000 0.000000 
-0.438994 -2.975902 5.591105 0.000000 0.000000 0.000000 
0.667161 -3.273909 5.930734 0.000000 0.000000 0.000000 
2.098407 -3.376037 6.030735 0.000000 0.000000 0.000000 
3.477165 -3.369145 5.797413 0.000000 0.000000 0.000000 
4.670855 -2.839583 5.295374 0.000000 0.000000 0.000000 
5.183542 -3.422887 4.963670 0.000000 0.000000 0.000000 
7.854371 -3.120899 5.156997 0.000000 0.000000 0.000000 
9.480741 -2.963974 5.247348 0.000000 0.000000 0.000000 
11.798720 -2.907257 5.284715 0.000000 0.000000 0.000000 
11.799572 -3.233733 5.598043 0.000000 0.000000 0.000000 
11.799516 -4.090414 6.263210 0.000000 0.000000 0.000000 
-8.199569 -1.777986 5.752754 0.000000 0.000000 0.000000 
-8.199684 -2.073697 6.565345 0.000000 0.000000 0.000000 
-7.264945 -2.072580 5.655783 0.000000 0.000000 0.000000 
-4.892786 -1.973478 5.698500 0.000000 0.000000 0.000000 
-3.397542 -1.971724 5.698974 0.000000 0.000000 0.000000 
-1.919820 -2.045193 5.674397 0.000000 0.000000 0.000000 
-0.264450 -2.066415 5.661018 0.000000 0.000000 0.000000 
0.684231 -2.010216 5.931263 0.000000 0.000000 0.000000 
2.083226 -2.029805 6.030014 0.000000 0.000000 0.000000 
3.356159 -1.497632 5.818394 0.000000 0.000000 0.000000 
3.826452 -2.049183 5.665979 0.000000 0.000000 0.000000 
6.057512 -2.160626 5.639706 0.000000 0.000000 0.000000 
7.597582 -2.099295 5.663253 0.000000 0.000000 0.000000 
9.218068 -1.914662 5.719605 0.000000 0.000000 0.000000 
11.075790 -1.797488 5.752544 0.000000 0.000000 0.000000 
11.799682 -1.879533 5.710035 0.000000 0.000000 0.000000 
11.799459 -2.611259 6.542984 0.000000 0.000000 0.000000 
-8.199503 -0.491903 6.007307 0.000000 0.000000 0.000000 
-8.199680 -0.705138 6.566795 0.000000 0.000000 0.000000 
-6.826282 -0.832144 5.976810 0.000000 0.000000 0.000000 
-4.986693 -0.758232 5.991442 0.000000 0.000000 0.000000 
-3.454064 -0.674392 5.996832 0.000000 0.000000 0.000000 
-2.017308 -0.693402 5.996998 0.000000 0.000000 0.000000 
-0.659782 -0.731215 5.994454 0.000000 0.000000 0.000000 
0.981827 -0.639725 5.987810 0.000000 0.000000 0.000000 
1.873149 -0.349767 6.018599 0.000000 0.000000 0.000000 
2.461390 -0.602868 5.989574 0.000000 0.000000 0.000000 
4.776151 -0.726427 5.991949 0.000000 0.000000 0.000000 
6.136178 -0.749839 5.992536 0.000000 0.000000 0.000000 
7.583019 -0.730423 5.993953 0.000000 0.000000 0.000000 
9.158060 -0.643490 6.002358 0.000000 0.000000 0.000000 
10.940804 -0.600352 5.999825 0.000000 0.000000 0.000000 
11.799425 -0.848953 5.961709 0.000000 0.000000 0.000000 
11.799377 -1.265357 6.655302 0.000000 0.000000 0.000000 
-8.199269 0.869105 5.962118 0.000000 0.000000 0.000000 
-8.199540 0.631636 6.536277 0.000000 0.000000 0.000000 
-6.759963 0.557422 6.009027 0.000000 0.000000 0.000000 
-4.964341 0.624918 6.007119 0.000000 0.000000 0.000000 
-3.428904 0.722607 5.994528 0.000000 0.000000 0.000000 
-2.003873 0.735437 5.993473 0.000000 0.000000 0.000000 
-0.644371 0.707168 5.995105 0.000000 0.000000 0.000000 
1.269206 0.556508 5.995347 0.000000 0.000000 0.000000 
2.153611 0.594159 5.999916 0.000000 0.000000 0.000000 
3.452286 0.744381 5.994117 0.000000 0.000000 0.000000 
4.780762 0.707640 5.998236 -170768558954329390000000000000000000000.000000 0.000000 0.000000 
6.183371 0.673867 5.998772 0.000000 0.000000 0.000000 
7.648952 0.686417 5.996594 0.000000 0.000000 0.000000 
9.206982 0.702172 5.994337 0.000000 0.000000 0.000000 
10.908156 0.670501 5.988912 0.000000 0.000000 0.000000 
11.799513 0.354212 6.009020 0.000000 0.000000 0.000000 
11.799365 0.022660 6.588048 0.000000 0.000000 0.000000 
-8.199455 2.091788 5.646234 0.000000 0.000000 0.000000 
-8.199589 2.000721 6.361542 0.000000 0.000000 0.000000 
-6.981493 1.869726 5.731795 0.000000 0.000000 0.000000 
-4.996750 1.946730 5.711601 0.000000 0.000000 0.000000 
-3.401004 2.079662 5.668446 0.000000 0.000000 0.000000 
-1.987114 2.107888 5.656106 0.000000 0.000000 0.000000 
-0.118843 1.966891 5.693007 0.000000 0.000000 0.000000 
0.741546 1.063469 5.928512 0.000000 0.000000 0.000000 
2.095185 2.057822 6.031780 0.000000 0.000000 0.000000 
3.456326 1.679935 5.791945 0.000000 0.000000 0.000000 
4.656799 2.079864 5.661766 0.000000 0.000000 0.000000 
6.081037 2.044723 5.677777 0.000000 0.000000 0.000000 
7.585537 1.976333 5.697745 0.000000 0.000000 0.000000 
9.258666 2.020109 5.684668 0.000000 0.000000 -170768558954329390000000000000000000000.000000 
11.799003 1.903737 5.716467 0.000000 0.000000 0.000000 
11.799769 1.238652 5.876719 0.000000 0.000000 0.000000 
11.799578 1.322360 6.558140 0.000000 0.000000 0.000000 
-8.199514 2.990314 5.212738 0.000000 0.000000 0.000000 
-8.199485 3.491012 6.027864 0.000000 0.000000 0.000000 
-7.336644 2.954827 5.248124 0.000000 0.000000 0.000000 
-5.272383 3.020040 5.215442 0.000000 0.000000 0.000000 
-3.525569 3.152794 5.135769 0.000000 0.000000 0.000000 
-1.510501 3.319746 5.026337 0.000000 0.000000 0.000000 
-0.666315 2.442990 5.499047 0.000000 0.000000 0.000000 
0.644604 3.381651 5.924020 0.000000 0.000000 0.000000 
2.057189 3.366446 6.033311 0.000000 0.000000 0.000000 
3.485343 3.235444 5.796387 0.000000 0.000000 0.000000 
4.504560 2.662781 5.382405 0.000000 0.000000 0.000000 
5.050210 3.268426 5.061302 0.000000 0.000000 0.000000 
7.345608 3.085526 5.173554 0.000000 0.000000 0.000000 
9.039054 3.076751 5.178569 0.000000 0.000000 0.000000 
11.799359 3.113237 5.160700 0.000000 0.000000 0.000000 
11.799804 3.108680 5.573142 0.000000 0.000000 0.000000 
11.799582 2.963363 6.427597 0.000000 0.000000 0.000000 
-8.199545 4.871060 6.191875 0.000000 0.000000 0.000000 
-0.726174 4.991884 5.482443 0.000000 0.000000 0.000000 
0.627673 4.824507 5.924534 0.000000 0.000000 0.000000 
2.046442 4.808081 6.031816 0.000000 0.000000 0.000000 
3.469420 4.650023 5.802474 0.000000 0.000000 0.000000 
4.831454 4.137271 5.218531 0.000000 0.000000 0.000000 
11.799453 4.831713 6.259270 0.000000 0.000000 0.000000 
-8.199493 6.209351 6.230690 0.000000 0.000000 0.000000 
-0.526029 6.782165 5.560700 0.000000 0.000000 0.000000 
0.658040 6.393522 5.926639 0.000000 0.000000 0.000000 
2.061201 6.358305 6.030103 0.000000 0.000000 0.000000 
3.382344 6.218768 5.820481 0.000000 0.000000 0.000000 
4.600585 5.819009 5.338509 0.000000 0.000000 0.000000 
11.799470 6.223872 6.213105 0.000000 0.000000 0.000000 
-8.199493 7.644015 6.393284 0.000000 0.000000 0.000000 
-0.508467 8.557963 5.564147 0.000000 0.000000 0.000000 
0.659633 8.134601 5.918595 0.000000 0.000000 0.000000 
1.972727 8.050250 6.028858 0.000000 0.000000 0.000000 
3.331390 8.060669 5.831500 0.000000 0.000000 0.000000 
4.510781 7.713500 5.379684 0.000000 0.000000 0.000000 
11.799459 7.548244 6.118355 -0.000000 0.000000 0.000000 
-8.199451 9.997745 6.856752 0.000000 0.000000 0.000000 
-0.844982 9.998706 5.412596 0.000000 0.000000 0.000000 
0.430627 9.998777 5.869935 0.000000 0.000000 0.000000 
1.678644 9.998960 6.026149 0.000000 0.000000 0.000000 
2.947410 9.998911 5.917114 0.000000 0.000000 0.000000 
4.347351 9.999228 5.467326 0.000000 0.000000 0.000000 
11.799460 8.816775 6.153218 0.000000 0.000000 0.000000 
-8.197533 9.999701 6.268875 0.000000 0.000000 0.000000 
-6.607411 9.999584 6.158972 0.000000 0.000000 0.000000 
-4.915001 9.999562 6.138621 0.000000 0.000000 0.000000 
-3.383697 9.999627 6.176419 0.000000 0.000000 0.000000 
-2.011267 9.999591 6.131787 0.000000 0.000000 0.000000 
-0.351281 9.999445 6.123900 0.000000 0.000000 0.000000 
1.223312 9.999739 5.973482 0.000000 0.000000 0.000000 
2.379461 9.999793 5.972810 0.000000 0.000000 0.000000 
3.753112 9.999563 6.374414 0.000000 0.000000 0.000000 
5.314850 9.999664 6.072073 0.000000 0.000000 0.000000 
6.652303 9.999625 6.451530 0.000000 0.000000 0.000000 
7.715760 9.999647 6.286867 0.000000 0.000000 0.000000 
9.132211 9.999601 6.316644 42613722872452228000000000000000000000.000000 -0.000000 0.000000 
10.763255 9.999510 6.223470 0.000000 0.000000 0.000000 
11.799530 9.999296 6.123329 0.000000 0.000000 0.000000 
-8.198895 -9.999526 8.006126 0.000000 0.000000 0.000000 
-8.199519 -9.192599 7.175292 0.000000 0.000000 0.000000 
-6.417950 -9.999429 7.756643 0.000000 0.000000 0.000000 
-4.815599 -9.999453 7.633683 0.000000 0.000000 0.000000 
-3.368346 -9.999523 7.684534 0.000000 0.000000 0.000000 
-2.000195 -9.999560 7.687109 0.000000 0.000000 0.000000 
-0.651669 -9.999557 7.686626 0.000000 0.000000 0.000000 
0.729027 -9.999627 7.627478 0.000000 0.000000 0.000000 
2.094055 -9.999655 7.697778 0.000000 0.000000 0.000000 
3.410515 -9.999652 7.762918 0.000000 0.000000 0.000000 
4.816259 -9.999615 7.719515 0.000000 0.000000 0.000000 
6.363036 -9.999561 7.719858 0.000000 0.000000 0.000000 
7.744698 -9.999474 7.763176 0.000000 0.000000 0.000000 
9.226645 -9.999427 7.762900 0.000000 0.000000 0.000000 
10.766292 -9.999480 7.554846 0.000000 0.000000 0.000000 
11.799546 -9.999265 7.098374 0.000000 0.000000 0.000000 
11.799364 -8.772797 7.439370 0.000000 0.000000 0.000000 
-8.199441 -7.722961 7.545415 0.000000 0.000000 0.000000 
11.799382 -7.433131 7.563033 -170700612882157150000000000000000000000.000000 -170700612882157150000000000000000000000.000000 -170700612882157150000000000000000000000.000000 
-8.199511 -6.311924 7.660977 -170700612882157150000000000000000000000.000000 -170700612882157150000000000000000000000.000000 -170700612882157150000000000000000000000.000000 
11.799376 -6.120613 7.570129 -170700612882157150000000000000000000000.000000 -170700612882157150000000000000000000000.000000 -170700612882157150000000000000000000000.000000 
-8.199534 -4.980803 7.686372 -170700612882157150000000000000000000000.000000 -170700612882157150000000000000000000000.000000 -170700612882157150000000000000000000000.000000 
11.799411 -4.844180 7.568948 -170700612882157150000000000000000000000.000000 -170700612882157150000000000000000000000.000000 -170700612882157150000000000000000000000.000000 
-8.199574 -3.520487 7.683812 -170700612882157150000000000000000000000.000000 -170700612882157150000000000000000000000.000000 -170700612882157150000000000000000000000.000000 
11.799455 -3.479200 7.604340 -170700612882157150000000000000000000000.000000 -170700612882157150000000000000000000000.000000 -170700612882157150000000000000000000000.000000 
-8.199579 -2.040208 7.697154 -170700612882157150000000000000000000000.000000 -170700612882157150000000000000000000000.000000 -170700612882157150000000000000000000000.000000 
11.799455 -2.102558 7.648109 -170700612882157150000000000000000000000.000000 -170700612882157150000000000000000000000.000000 -170700612882157150000000000000000000000.000000 
-8.199542 -0.651625 7.692732 -170700612882157150000000000000000000000.000000 -170700612882157150000000000000000000000.000000 -170700612882157150000000000000000000000.000000 
11.799451 -0.746140 7.619711 -170700612882157150000000000000000000000.000000 -170700612882157150000000000000000000000.000000 -170700612882157150000000000000000000000.000000 
-8.199515 0.718359 7.687811 -170700612882157150000000000000000000000.000000 -170700612882157150000000000000000000000.000000 -170700612882157150000000000000000000000.000000 
11.799507 0.617562 7.602089 -170700612882157150000000000000000000000.000000 -170700612882157150000000000000000000000.000000 -170700612882157150000000000000000000000.000000 
-8.199542 2.063252 7.668056 -170700612882157150000000000000000000000.000000 -170700612882157150000000000000000000000.000000 -170700612882157150000000000000000000000.000000 
11.799526 2.025604 7.617967 -170700612882157150000000000000000000000.000000 -170700612882157150000000000000000000000.000000 -170700612882157150000000000000000000000.000000 
-8.199553 3.418680 7.652824 -170700612882157150000000000000000000000.000000 -170700612882157150000000000000000000000.000000 -170700612882157150000000000000000000000.000000 
11.799480 3.516902 7.571071 -170700612882157150000000000000000000000.000000 -170700612882157150000000000000000000000.000000 -170700612882157150000000000000000000000.000000 
-8.199521 4.779530 7.644626 -170700612882157150000000000000000000000.000000 -170700612882157150000000000000000000000.000000 -170700612882157150000000000000000000000.000000 
11.799485 4.961886 7.544385 -170700612882157150000000000000000000000.000000 -170700612882157150000000000000000000000.000000 -170700612882157150000000000000000000000.000000 
-8.199498 6.158218 7.669830 -170700612882157150000000000000000000000.000000 -170700612882157150000000000000000000000.000000 -170700612882157150000000000000000000000.000000 
11.799493 6.338737 7.540397 0.000000 0.000000 0.000000 
-8.199495 7.630288 7.840914 0.000000 0.000000 0.000000 
11.799438 7.662631 7.459908 0.000000 0.000000 0.000000 
-8.199335 9.016942 8.308546 0.000000 0.000000 0.000000 
11.799427 8.887952 7.486588 0.000000 0.000000 0.000000 
-8.198661 9.999797 7.692573 0.000000 0.000000 0.000000 
-6.609943 9.999473 7.675223 0.000000 0.000000 0.000000 
-5.050881 9.999443 7.642745 0.000000 0.000000 0.000000 
-3.590057 9.999554 7.715032 0.000000 0.000000 0.000000 
-2.193910 9.999576 7.722970 0.000000 0.000000 0.000000 
-0.766948 9.999570 7.703002 0.000000 0.000000 0.000000 
0.704516 9.999436 7.683696 0.000000 0.000000 0.000000 
2.062999 9.999517 7.713124 0.000000 0.000000 0.000000 
3.369528 9.999482 7.718036 0.000000 0.000000 0.000000 
4.775780 9.999557 7.701522 0.000000 0.000000 0.000000 
6.202618 9.999552 7.708895 0.000000 0.000000 0.000000 
7.517828 9.999548 7.762272 0.000000 0.000000 0.000000 
8.951915 9.999498 7.802186 0.000000 0.000000 0.000000 
10.592942 9.999502 7.731933 0.000000 0.000000 0.000000 
11.799470 9.999449 7.539344 0.000000 0.000000 0.000000 
-8.198413 -9.999622 9.998239 0.000000 0.000000 40609771904979891000000000000000.000000 
-8.199584 -9.997097 8.707922 0.000000 0.000000 0.000000 
-6.213819 -9.999378 9.997805 0.000000 0.000000 0.000000 
-4.750348 -9.999394 9.997395 0.000000 0.000000 0.000000 
-3.315425 -9.999398 9.997358 0.000000 0.000000 0.000000 
-1.930486 -9.999413 9.997904 0.000000 0.000000 0.000000 
-0.552704 -9.999448 9.997867 0.000000 0.000000 0.000000 
0.825830 -9.999471 9.997808 0.000000 0.000000 0.000000 
2.205785 -9.999476 9.997803 0.000000 0.000000 0.000000 
3.581178 -9.999465 9.997853 0.000000 0.000000 0.000000 
4.964279 -9.999454 9.997849 0.000000 0.000000 0.000000 
6.355896 -9.999468 9.997790 0.000000 0.000000 0.000000 
7.745800 -9.999449 9.997847 0.000000 0.000000 0.000000 
9.219168 -9.999370 9.997507 0.000000 0.000000 0.000000 
10.843001 -9.999401 9.998410 0.000000 0.000000 0.000000 
11.799453 -9.999250 8.419680 0.000000 0.000000 0.000000 
11.799330 -8.519844 8.719084 0.000000 0.000000 0.000000 
-8.199432 -7.614718 9.009619 0.000000 0.000000 0.000000 
11.799362 -7.090093 8.787507 0.000000 0.000000 0.000000 
-8.199415 -6.347914 9.996894 0.000000 0.000000 0.000000 
11.799490 -5.723805 8.804754 0.000000 0.000000 0.000000 
-8.199486 -4.960229 9.997334 0.000000 0.000000 0.000000 
11.799552 -4.354128 8.811058 0.000000 0.000000 0.000000 
-8.199503 -3.580727 9.997179 0.000000 0.000000 0.000000 
11.799592 -2.975622 8.817688 0.000000 0.000000 0.000000 
-8.199525 -2.189095 9.996919 0.000000 0.000000 0.000000 
11.799616 -1.596662 8.818361 0.000000 0.000000 0.000000 
-8.199529 -0.807254 9.997140 0.000000 0.000000 0.000000 
11.799514 -0.218284 8.818473 0.000000 0.000000 0.000000 
-8.199525 0.566889 9.997272 0.000000 0.000000 0.000000 
11.799629 1.164615 8.819294 0.000000 0.000000 0.000000 
-8.199523 1.950375 9.997380 0.000000 0.000000 0.000000 
11.799609 2.553452 8.815332 0.000000 0.000000 0.000000 
-8.199507 3.328820 9.997098 0.000000 0.000000 0.000000 
11.799586 3.942916 8.809958 0.000000 0.000000 0.000000 
-8.199467 4.705613 9.997397 0.000000 0.000000 0.000000 
11.799554 5.326713 8.805850 0.000000 0.000000 0.000000 
-8.199488 6.104328 9.997167 0.000000 0.000000 0.000000 
11.799493 6.694594 8.800132 0.000000 0.000000 0.000000 
-8.199504 7.567066 9.998184 0.000000 0.000000 0.000000 
11.799426 7.989631 8.709000 0.000000 0.000000 0.000000 
-8.199445 8.779883 9.998020 0.000000 0.000000 0.000000 
11.799459 8.997715 8.581887 0.000000 0.000000 0.000000 
-8.199387 9.999408 8.970480 0.000000 0.000000 0.000000 
-6.777565 9.999531 9.998397 0.000000 0.000000 0.000000 
-5.365391 9.999403 9.997413 0.000000 0.000000 0.000000 
-3.927644 9.999436 9.997842 0.000000 0.000000 0.000000 
-2.536396 9.999489 9.997868 0.000000 0.000000 0.000000 
-1.153995 9.999486 9.997896 0.000000 0.000000 0.000000 
0.234385 9.999497 9.997862 0.000000 0.000000 0.000000 
1.620074 9.999511 9.997829 0.000000 0.000000 0.000000 
2.996753 9.999506 9.997827 0.000000 0.000000 0.000000 
4.375471 9.999478 9.997868 0.000000 0.000000 0.000000 
5.757544 9.999440 9.997920 0.000000 0.000000 0.000000 
7.132275 9.999399 9.997419 0.000000 0.000000 0.000000 
8.527854 9.999317 9.997542 0.000000 0.000000 0.000000 
10.039479 9.999365 9.997566 0.000000 0.000000 0.000000 
11.799401 9.999590 9.997819 0.000000 0.000000 0.000000 
-8.199564 -8.624424 9.999681 0.000000 0.000000 0.000000 
-6.482371 -9.997217 9.999541 0.000000 0.000000 0.000000 
-5.009321 -9.997786 9.999495 0.000000 0.000000 0.000000 
-3.630431 -9.997612 9.999303 0.000000 0.000000 0.000000 
-2.297617 -9.997481 9.999337 0.000000 0.000000 0.000000 
-0.940568 -9.997551 9.999459 0.000000 0.000000 0.000000 
0.457845 -9.997609 9.999485 0.000000 0.000000 0.000000 
1.841860 -9.997621 9.999490 0.000000 0.000000 0.000000 
3.231818 -9.997558 9.999452 0.000000 0.000000 0.000000 
4.660732 -9.997554 9.999393 0.000000 0.000000 0.000000 
6.066957 -9.997600 9.999438 0.000000 0.000000 0.000000 
7.458948 -9.997618 9.999593 0.000000 0.000000 0.000000 
8.955096 -9.997232 9.999422 0.000000 0.000000 0.000000 
10.518956 -9.997651 9.999676 0.000000 0.000000 0.000000 
11.799704 -9.998227 10.000151 0.000000 0.000000 0.000000 
-8.198829 -7.149347 9.999371 0.000000 0.000000 0.000000 
-6.551334 -7.616679 9.999355 0.000000 0.000000 0.000000 
-5.045575 -7.794369 9.999452 0.000000 0.000000 0.000000 
-3.682493 -7.796916 9.999565 0.000000 0.000000 0.000000 
-2.651813 -8.004390 9.999441 0.000000 0.000000 0.000000 
-1.378949 -7.670482 9.999584 0.000000 0.000000 0.000000 
0.122412 -8.052332 9.999581 0.000000 0.000000 0.000000 
1.507608 -8.146821 9.999683 0.000000 0.000000 0.000000 
2.823739 -8.121555 9.999640 0.000000 0.000000 0.000000 
4.427471 -7.765769 9.999485 0.000000 0.000000 0.000000 
6.067692 -7.768857 9.999388 0.000000 0.000000 0.000000 
7.508152 -7.692230 9.999501 0.000000 0.000000 0.000000 
9.000263 -7.626652 9.999393 0.000000 0.000000 0.000000 
10.605927 -7.816845 9.999273 0.000000 0.000000 0.000000 
11.799420 -8.022960 9.999205 0.000000 0.000000 0.000000 
-8.197575 -5.749109 9.999455 0.000000 0.000000 0.000000 
-6.643966 -6.198463 9.999369 0.000000 0.000000 0.000000 
-5.056807 -6.328191 9.999640 0.000000 0.000000 0.000000 
-3.930152 -6.506070 9.999598 0.000000 0.000000 0.000000 
-2.585245 -6.364953 9.999727 0.000000 0.000000 0.000000 
-1.460860 -6.202265 9.999833 0.000000 0.000000 0.000000 
-0.357494 -6.693348 9.999821 0.000000 0.000000 0.000000 
1.138199 -6.990582 9.999727 0.000000 0.000000 0.000000 
2.235683 -6.994594 9.999871 0.000000 0.000000 0.000000 
3.593463 -6.768392 9.999779 0.000000 0.000000 0.000000 
4.751307 -6.798151 9.999775 0.000000 0.000000 0.000000 
6.025942 -6.443050 9.999696 0.000000 0.000000 0.000000 
5.528597 -5.939122 9.999930 0.000000 0.000000 0.000000 
7.558318 -6.300421 9.999571 0.000000 0.000000 0.000000 
9.092954 -6.171248 9.999442 0.000000 0.000000 0.000000 
10.767450 -6.283085 9.999371 0.000000 0.000000 0.000000 
11.799585 -6.599038 9.999393 0.000000 0.000000 0.000000 
-8.197687 -4.363800 9.999595 0.000000 0.000000 0.000000 
-6.697226 -4.857450 9.999515 0.000000 0.000000 0.000000 
-5.376136 -5.217707 9.999482 0.000000 0.000000 0.000000 
-3.866692 -4.970774 9.999804 0.000000 0.000000 0.000000 
-2.965106 -5.140057 10.000067 0.000000 0.000000 0.000000 
-2.223149 -5.747599 10.000653 0.000000 0.000000 0.000000 
6.219190 -5.438278 9.999787 0.000000 0.000000 0.000000 
7.498934 -5.093988 9.999743 0.000000 0.000000 0.000000 
6.860356 -4.856116 10.000163 0.000000 0.000000 0.000000 
9.124454 -4.846385 9.999537 0.000000 0.000000 0.000000 
10.780791 -4.890007 9.999356 0.000000 0.000000 0.000000 
11.799676 -5.216230 9.999317 0.000000 0.000000 0.000000 
-8.197745 -3.046002 9.999527 0.000000 0.000000 0.000000 
-6.892328 -3.718954 9.999606 0.000000 0.000000 0.000000 
