ply
format ascii 1.0
comment Generated by the CGAL library
element vertex 2188
property double x
property double y
property double z
end_header
1 0.719622 0.0220947 
0 0.728406 0.0257882 
1 0.724705 0.0243136 
1 0.738359 0.0230782 
0 0.746451 0.0277596 
0 0.755975 0.0274614 
1 0.756199 0.0231252 
0 0.769632 0.0233281 
1 0.762664 0.0237717 
0 0.782995 0.020411 
1 0.786315 0.0240835 
0 0.794343 0.0244435 
0 0.806436 0.0246084 
0 0.815943 0.0237657 
1 0.815805 0.0244969 
0 0.825406 0.023816 
1 0.824838 0.0240303 
0 0.831483 0.0291888 
1 0.837711 0.0253143 
0 0.847455 0.0219974 
1 0.845893 0.0248852 
0 0.851702 0.0254571 
1 0.855192 0.0254552 
0 0.864485 0.0253375 
0 0.87278 0.0298492 
1 0.87712 0.0245027 
0 0.889311 0.0247196 
0 0.895684 0.0258015 
1 0.895816 0.0259877 
0 0.905949 0.0250326 
0 0.916995 0.0258154 
1 0.911551 0.0225005 
1 0.922642 0.0276732 
0 0.935329 0.0244394 
1 0.931103 0.0239376 
0 0.946528 0.0227659 
0 0.953248 0.0204888 
1 0.952209 0.0291259 
1 0.964595 0.0247975 
0 0.977235 0.0227688 
1 0.972488 0.0264421 
0 0.987079 0.0221571 
0 0.99435 0.0266752 
1 0.995786 0.0275804 
0.00636023 1 0.0251709 
0.0168271 1 0.02531 
0.0293303 1 0.0250606 
0.0389991 1 0.0234732 
0.0406199 1 0.0207873 
0.0542195 1 0.0261498 
0.102735 1 0.0296825 
0.111846 1 0.0231742 
0.127386 1 0.0230541 
0.146407 1 0.021361 
0.150833 1 0.0244254 
0.160038 1 0.0233778 
0.194766 1 0.0255803 
0.202513 1 0.0256273 
0.214039 1 0.0254892 
0.233103 1 0.0259911 
0.244113 1 0.0232466 
0.254239 1 0.0240911 
0.266103 1 0.0231752 
0.276105 1 0.0243041 
0.289964 1 0.0244205 
0.293248 1 0.025017 
0.305673 1 0.0224147 
0.319325 1 0.0204402 
0.328059 1 0.0286872 
0.33967 1 0.0275675 
0.34179 1 0.0235895 
0.353876 1 0.0238145 
0.393174 1 0.0241512 
0.406211 1 0.0242943 
0.41628 1 0.0228372 
0.425699 1 0.0252958 
0.43769 1 0.0249511 
0.441475 1 0.0248526 
0.451273 1 0.0277897 
0.465029 1 0.0257298 
0.48448 1 0.0239265 
0.495171 1 0.0291639 
0.501957 1 0.0244705 
0.526167 1 0.0296146 
0.534444 1 0.023581 
0.547246 1 0.0288222 
0.559719 1 0.0297749 
0.561977 1 0.0226444 
0.57827 1 0.0241445 
0.587545 1 0.0229078 
0.591279 1 0.0241855 
0.601781 1 0.0275918 
0.616854 1 0.0234292 
0.631651 1 0.0232691 
0.645131 1 0.0247378 
0.655319 1 0.0226786 
0.661078 1 0.0219584 
0.671271 1 0.0251402 
0.688896 1 0.0223716 
0.698079 1 0.028821 
0.708023 1 0.0253094 
0.71648 1 0.0243476 
0.736135 1 0.0242034 
0.746829 1 0.0246278 
0.755502 1 0.0258346 
0.775402 1 0.0255031 
0.805009 1 0.0237125 
0.819381 1 0.0286737 
0.826271 1 0.0236725 
0.833079 1 0.0246703 
0.846819 1 0.0238559 
0.856316 1 0.0260763 
0.863011 1 0.0282136 
0.872634 1 0.0210631 
0.898137 1 0.0229725 
0.914063 1 0.0204614 
0.928184 1 0.0200754 
0.933826 1 0.0247181 
0.945592 1 0.0268867 
0.961727 1 0.0284387 
0.972937 1 0.0205799 
0.997298 1 0.0247053 
0.276043 0.986261 1 
0.0179684 0 0.0372817 
0.0288983 0 0.0341716 
0.0382054 0 0.0381278 
0.0416149 0 0.0345847 
0.0551073 0 0.0377029 
0.0654328 0 0.0371828 
0.0739397 0 0.0321057 
0.0856287 0 0.0355222 
0.0943655 0 0.0333294 
0.103607 0 0.036047 
0.119022 0 0.0310794 
0.127987 0 0.0339033 
0.136798 0 0.0386186 
0.14522 0 0.0345466 
0.155763 0 0.0361253 
0.160511 0 0.038685 
0.170641 0 0.0343204 
0.180842 0 0.0318734 
0.197031 0 0.0347608 
0.21522 0 0.0342799 
0.225244 0 0.0328589 
0.235843 0 0.035422 
0.244407 0 0.0350382 
0.286877 0 0.0345649 
0.295143 0 0.0315029 
0.315592 0 0.032938 
0.327648 0 0.03205 
0.34795 0 0.0371478 
0.364144 0 0.0361845 
0.374893 0 0.0347628 
0.389449 0 0.035495 
0.394036 0 0.0369606 
0.419097 0 0.0358983 
0.423302 0 0.0338193 
0.432565 0 0.032 
0.457242 0 0.0304937 
0.475514 0 0.0364137 
0.482455 0 0.0354979 
0.491107 0 0.0363096 
0.516635 0 0.0358861 
0.523679 0 0.0378172 
0.536492 0 0.0347746 
0.542535 0 0.0348935 
0.564315 0 0.034114 
0.572841 0 0.0371 
0.584494 0 0.0338663 
0.590495 0 0.0335047 
0.609258 0 0.0311945 
0.614443 0 0.0380547 
0.628413 0 0.0328859 
0.634604 0 0.0308548 
0.64935 0 0.0374748 
0.653844 0 0.0331579 
0.667808 0 0.0392126 
0.67457 0 0.0355215 
0.692728 0 0.0334473 
0.703074 0 0.0387016 
0.719076 0 0.0326893 
0.724521 0 0.0340861 
0.734667 0 0.0350504 
0.744152 0 0.035791 
0.754252 0 0.0349172 
0.76576 0 0.0356078 
0.773376 0 0.0377244 
0.781459 0 0.0385154 
0.797339 0 0.0346322 
0.803958 0 0.0318334 
0.823742 0 0.0315775 
0.831629 0 0.0378601 
0.847542 0 0.0348564 
0.865857 0 0.035601 
0.888552 0 0.0371573 
0.896507 0 0.0350078 
0.911439 0 0.0343157 
0.926731 0 0.0360886 
0.937256 0 0.0386001 
0.949976 0 0.0380465 
0.954951 0 0.0334118 
0.965538 0 0.0376656 
0.985198 0 0.0366439 
0.998861 0 0.0322118 
1 0.00585395 0.0365599 
0 0.0183495 0.0315308 
1 0.014761 0.0353971 
1 0.0246834 0.0345048 
1 0.0327888 0.0354441 
1 0.0400961 0.0399203 
0 0.0553005 0.0394119 
1 0.0583358 0.0378406 
0 0.0649722 0.0330644 
1 0.0690049 0.0384275 
0 0.0760871 0.0334534 
1 0.0743574 0.0368374 
0 0.0852937 0.0360088 
1 0.0822443 0.0345679 
0 0.0993239 0.0332682 
1 0.099156 0.0300379 
0 0.104564 0.0365252 
1 0.103739 0.0345341 
0 0.117434 0.0349389 
1 0.114073 0.0356005 
1 0.129675 0.0369573 
0 0.132056 0.0317658 
1 0.134499 0.0369212 
0 0.144309 0.0346266 
1 0.145572 0.0338258 
0 0.155654 0.0332485 
1 0.156677 0.0339788 
0 0.17805 0.0324163 
1 0.175258 0.0317384 
0 0.185172 0.0348808 
1 0.182766 0.0390708 
0 0.190026 0.0371748 
1 0.196729 0.0367446 
0 0.202641 0.0363352 
1 0.204615 0.03365 
0 0.217351 0.0337113 
0 0.226321 0.0377853 
0 0.236422 0.031287 
1 0.235241 0.0359079 
0 0.246273 0.0379357 
1 0.243244 0.0361057 
0 0.259871 0.0326844 
1 0.255804 0.0321167 
1 0.269693 0.0306359 
0 0.271592 0.0378724 
1 0.273837 0.0335524 
0 0.285161 0.03051 
1 0.285178 0.0327162 
1 0.295676 0.0338946 
0 0.304061 0.0385545 
1 0.305598 0.0334618 
0 0.317825 0.0382689 
1 0.316509 0.0395549 
0 0.329439 0.0306202 
1 0.328406 0.0318172 
1 0.337431 0.0317936 
0 0.345845 0.0344527 
0 0.354997 0.0329684 
1 0.354417 0.0313446 
0 0.365515 0.0383526 
1 0.363253 0.0385078 
0 0.372972 0.0364859 
0 0.385505 0.0374458 
0 0.395749 0.0348005 
1 0.394271 0.0366202 
0 0.405505 0.0369096 
1 0.40483 0.0371996 
0 0.413697 0.0369933 
1 0.425906 0.0344974 
0 0.443725 0.0355231 
1 0.443095 0.037365 
0 0.457399 0.0328579 
1 0.452446 0.0339027 
0 0.46541 0.0369781 
1 0.466502 0.0379357 
1 0.474573 0.0367469 
0 0.486261 0.03264 
1 0.485148 0.0383801 
0 0.496997 0.036892 
1 0.497962 0.0363589 
0 0.506022 0.0312027 
1 0.505734 0.0307541 
0 0.519313 0.035536 
0 0.521129 0.0394437 
1 0.522465 0.0382372 
0 0.534446 0.0397615 
1 0.534675 0.0373991 
0 0.547144 0.033486 
1 0.545363 0.0311399 
0 0.551135 0.0355086 
1 0.554838 0.0368455 
0 0.56009 0.031187 
1 0.567445 0.0368696 
0 0.5737 0.0332209 
1 0.573974 0.0359632 
0 0.594512 0.0393009 
1 0.597288 0.0370175 
0 0.604501 0.0389778 
1 0.607182 0.0333798 
0 0.614444 0.0322181 
1 0.614475 0.0331687 
0 0.624333 0.034983 
1 0.624278 0.0379597 
0 0.636105 0.032369 
1 0.637925 0.0356957 
0 0.645045 0.0382689 
1 0.645861 0.0381336 
0 0.655178 0.0376742 
1 0.655058 0.0317385 
0 0.667351 0.0318645 
1 0.666983 0.036755 
1 0.677089 0.0339817 
0 0.684922 0.0353135 
1 0.68487 0.0345431 
0 0.697049 0.0369535 
1 0.695064 0.0363906 
0 0.702838 0.0349511 
1 0.704093 0.0354934 
0 0.714897 0.0359106 
0 0.727958 0.0306359 
0 0.734308 0.0380943 
1 0.737472 0.0341842 
0 0.745991 0.0344232 
1 0.748196 0.0387293 
0 0.757351 0.0312973 
1 0.758262 0.0348163 
0 0.7609 0.0383165 
0 0.775122 0.0358761 
1 0.775221 0.0303369 
0 0.781494 0.0368578 
1 0.782309 0.0392848 
1 0.792376 0.0300222 
0 0.807984 0.030809 
1 0.804152 0.0352963 
0 0.819579 0.034927 
1 0.813155 0.032164 
0 0.827329 0.0364302 
1 0.825954 0.0367945 
0 0.845695 0.0357817 
1 0.844196 0.0339843 
0 0.858109 0.0379847 
1 0.851734 0.0321955 
0 0.865757 0.0380785 
1 0.867171 0.0344524 
0 0.871723 0.0350656 
1 0.872876 0.0373015 
0 0.887806 0.0358286 
1 0.885883 0.0342473 
0 0.89906 0.0376429 
1 0.892646 0.039126 
0 0.902875 0.0374179 
1 0.907185 0.0387608 
0 0.913143 0.0346053 
0 0.924868 0.0350489 
1 0.927618 0.034674 
0 0.933637 0.0348 
1 0.934958 0.0342947 
0 0.945034 0.0346066 
1 0.944222 0.0346609 
0 0.957498 0.0337371 
0 0.969995 0.0303683 
1 0.966641 0.0341196 
0 0.977189 0.0317857 
1 0.97977 0.0350693 
0 0.981942 0.0331262 
1 0.985758 0.0364996 
0 0.993718 0.0381578 
0.00806722 1 0.0301352 
0.0170832 1 0.0303862 
0.0276423 1 0.0368107 
0.034987 1 0.0399771 
0.046315 1 0.0359445 
0.054882 1 0.0376561 
0.0850292 1 0.0335932 
0.0954522 1 0.0356928 
0.116741 1 0.033497 
0.125594 1 0.0362448 
0.1457 1 0.0303468 
0.154618 1 0.0331528 
0.16881 1 0.0373721 
0.179929 1 0.0302821 
0.184346 1 0.0371192 
0.199762 1 0.0363634 
0.202126 1 0.0355609 
0.226444 1 0.0326249 
0.234393 1 0.0355132 
0.244114 1 0.0356227 
0.25269 1 0.0364652 
0.264888 1 0.0347703 
0.273332 1 0.0349274 
0.283312 1 0.0379691 
0.294566 1 0.0346374 
0.305171 1 0.0359835 
0.312035 1 0.033434 
0.324718 1 0.0356732 
0.338482 1 0.0350081 
0.360734 1 0.0317019 
0.389274 1 0.0354119 
0.396354 1 0.0337724 
0.403737 1 0.0357743 
0.412658 1 0.036673 
0.421798 1 0.0317375 
0.435129 1 0.0325054 
0.443929 1 0.0364048 
0.450231 1 0.0305017 
0.464536 1 0.0347742 
0.474178 1 0.039764 
0.486854 1 0.0387078 
0.513757 1 0.0362099 
0.52457 1 0.0358283 
0.533763 1 0.0395977 
0.545449 1 0.036284 
0.557006 1 0.0329105 
0.560343 1 0.0364413 
0.582049 1 0.030905 
0.599614 1 0.032893 
0.60231 1 0.0335965 
0.613921 1 0.0310518 
0.634772 1 0.0358169 
0.642797 1 0.038306 
0.665124 1 0.0340699 
0.686282 1 0.0390425 
0.693275 1 0.0356089 
0.705577 1 0.0357064 
0.717613 1 0.0372029 
0.724727 1 0.0348123 
0.733574 1 0.0348124 
0.7483 1 0.0314909 
0.750244 1 0.0380106 
0.765365 1 0.0311482 
0.779029 1 0.0339333 
0.783001 1 0.0345882 
0.791098 1 0.0326601 
0.825809 1 0.036569 
0.838894 1 0.035274 
0.84336 1 0.0379219 
0.853633 1 0.034077 
0.861672 1 0.0329609 
0.877965 1 0.0339164 
0.88417 1 0.0330533 
0.89665 1 0.0326658 
0.915685 1 0.034486 
0.923572 1 0.0328183 
0.945715 1 0.0372878 
0.954112 1 0.0327132 
0.963442 1 0.0327911 
0.977396 1 0.0340509 
0.988192 1 0.0386699 
0.994857 1 0.0347669 
0.00975215 0 0.0487146 
0.0169745 0 0.0411894 
0.034389 0 0.0444599 
0.0417307 0 0.044188 
0.0548259 0 0.0445314 
0.0660288 0 0.0456399 
0.078203 0 0.0434187 
0.114004 0 0.0445557 
0.124223 0 0.0441531 
0.135178 0 0.0481788 
0.144683 0 0.0437473 
0.154123 0 0.0473746 
0.164237 0 0.0474761 
0.176226 0 0.0443806 
0.185973 0 0.0433745 
0.198467 0 0.0463626 
0.205215 0 0.0497953 
0.215044 0 0.045354 
0.222941 0 0.0469062 
0.23451 0 0.0456392 
0.244695 0 0.0470278 
0.253344 0 0.0442962 
0.275563 0 0.0443789 
0.297179 0 0.0497711 
0.304653 0 0.0457646 
0.312345 0 0.0446363 
0.325867 0 0.0467444 
0.333028 0 0.0481322 
0.342542 0 0.0431477 
0.353487 0 0.0427886 
0.36691 0 0.0472287 
0.385329 0 0.0473074 
0.395957 0 0.0497163 
0.401912 0 0.0415519 
0.414285 0 0.0445572 
0.425726 0 0.0422893 
0.433992 0 0.0427579 
0.44799 0 0.0457258 
0.455267 0 0.0445171 
0.474861 0 0.0429159 
0.484789 0 0.0463288 
0.495262 0 0.0424363 
0.507534 0 0.0444705 
0.515405 0 0.0435879 
0.529269 0 0.0475788 
0.532913 0 0.0476381 
0.543949 0 0.0452872 
0.556989 0 0.0466697 
0.569178 0 0.0468057 
0.575265 0 0.0459138 
0.587192 0 0.0432839 
0.593975 0 0.0468871 
0.604199 0 0.045669 
0.616838 0 0.0434958 
0.636409 0 0.0446133 
0.657451 0 0.0441376 
0.674882 0 0.0447545 
0.688189 0 0.0416028 
0.696273 0 0.0423687 
0.707579 0 0.0471454 
0.713518 0 0.0451863 
0.725512 0 0.0477409 
0.745506 0 0.0459092 
0.756623 0 0.0416957 
0.760983 0 0.0446041 
0.783874 0 0.0489919 
0.798459 0 0.0400216 
0.807125 0 0.0499023 
0.829104 0 0.0470109 
0.838051 0 0.0445446 
0.844508 0 0.042788 
0.857705 0 0.0430006 
0.866729 0 0.0409071 
0.87635 0 0.0445203 
0.894432 0 0.047536 
0.906576 0 0.0409243 
0.916178 0 0.0467856 
0.925168 0 0.046866 
0.938237 0 0.0488726 
0.954783 0 0.0426086 
0.965155 0 0.0491008 
0.978909 0 0.0473605 
0.987665 0 0.0447009 
0.991199 0 0.0402173 
1 0.00353104 0.041817 
0 0.0156228 0.0441296 
1 0.0164314 0.047408 
0 0.0247634 0.048144 
1 0.0213229 0.0427094 
0 0.0361781 0.0438896 
0 0.0453099 0.0430977 
1 0.0474676 0.0427057 
0 0.0560495 0.046542 
0 0.0639582 0.0458068 
1 0.0660415 0.0475406 
0 0.0781462 0.0443994 
1 0.0715042 0.0458509 
0 0.0862836 0.045122 
1 0.0848929 0.0452793 
0 0.097656 0.0441892 
0 0.100527 0.0416225 
0 0.113821 0.045535 
1 0.115502 0.0416861 
0 0.128562 0.0460908 
1 0.129748 0.0401747 
0 0.136767 0.0448696 
1 0.136648 0.0466377 
0 0.14383 0.0449908 
1 0.145944 0.0439585 
1 0.155962 0.0422092 
0 0.167564 0.0458829 
0 0.176458 0.0463555 
0 0.185164 0.0489905 
1 0.185354 0.0461094 
0 0.196133 0.0473401 
1 0.191907 0.046811 
0 0.204625 0.0473168 
1 0.200808 0.0480925 
0 0.214819 0.0454877 
1 0.219247 0.0425951 
0 0.226607 0.0467741 
1 0.227345 0.0434712 
0 0.230565 0.0490387 
1 0.233541 0.0432728 
1 0.241179 0.0454344 
1 0.251391 0.0429767 
0 0.263501 0.0443622 
1 0.268716 0.044296 
0 0.274369 0.0461728 
1 0.273742 0.0479643 
0 0.285602 0.042852 
1 0.289415 0.0475156 
1 0.293317 0.0468851 
0 0.308084 0.0446363 
1 0.303707 0.0440664 
0 0.31309 0.0415117 
1 0.314173 0.0486758 
0 0.327478 0.04435 
0 0.334653 0.0426265 
0 0.344429 0.0463148 
1 0.345257 0.0438526 
0 0.354179 0.0437447 
1 0.350583 0.0405722 
1 0.366803 0.0486216 
0 0.378505 0.0448759 
1 0.37187 0.0436948 
0 0.386491 0.045028 
1 0.383548 0.0429309 
0 0.392614 0.0462284 
0 0.403919 0.0416384 
1 0.404716 0.0431909 
1 0.426269 0.0445441 
0 0.43205 0.0497289 
1 0.434037 0.048101 
0 0.445028 0.0491831 
1 0.443697 0.0446044 
0 0.453478 0.0432 
0 0.467425 0.046891 
1 0.466736 0.0453472 
0 0.475204 0.0426879 
1 0.475164 0.0485816 
1 0.484611 0.0467655 
0 0.495361 0.0431574 
0 0.504396 0.0435828 
1 0.503648 0.0439977 
0 0.519911 0.0450677 
0 0.52707 0.048798 
1 0.529036 0.0450354 
0 0.534968 0.0448434 
1 0.537969 0.0435987 
1 0.545286 0.0467073 
1 0.55641 0.0470992 
0 0.564129 0.0465811 
1 0.568259 0.0449058 
0 0.575708 0.0445096 
1 0.575422 0.0455152 
0 0.584383 0.0462245 
1 0.583641 0.0431028 
0 0.595078 0.0454455 
1 0.591028 0.0424985 
0 0.603558 0.0420336 
1 0.602457 0.0429289 
0 0.617781 0.0464749 
0 0.625924 0.0436881 
0 0.635022 0.0435246 
1 0.633142 0.0476689 
0 0.644059 0.0482688 
1 0.646955 0.041702 
0 0.652243 0.0477719 
1 0.655877 0.0458397 
0 0.666803 0.0496005 
1 0.665523 0.0425852 
0 0.675121 0.0482377 
1 0.679243 0.0427535 
0 0.69263 0.0416794 
1 0.693693 0.0450284 
0 0.709134 0.0405563 
0 0.711398 0.0459185 
1 0.715213 0.0434206 
0 0.720253 0.0451316 
0 0.734384 0.0430245 
1 0.733915 0.0489184 
1 0.744915 0.0430883 
0 0.755449 0.0431706 
1 0.755747 0.0489905 
0 0.765405 0.0454092 
1 0.76093 0.0459309 
0 0.774172 0.0465794 
1 0.775574 0.0416604 
0 0.785087 0.0442552 
0 0.791713 0.0418135 
1 0.79715 0.046891 
1 0.806716 0.0431 
0 0.815494 0.0453591 
1 0.814345 0.0403019 
0 0.82451 0.0465568 
1 0.823939 0.0450166 
1 0.83518 0.0439918 
0 0.844914 0.0447297 
1 0.858992 0.0471151 
0 0.869214 0.0489103 
1 0.862824 0.0449758 
0 0.870521 0.0465709 
1 0.875223 0.0447646 
0 0.888173 0.0427535 
1 0.880703 0.0451558 
0 0.894674 0.0437025 
1 0.8927 0.0424993 
0 0.90598 0.0430608 
1 0.90757 0.0454673 
0 0.918728 0.044796 
1 0.91264 0.046747 
0 0.923822 0.0440933 
1 0.928318 0.0404927 
0 0.946649 0.0415587 
1 0.943465 0.0464193 
1 0.951697 0.0430385 
0 0.963212 0.0402223 
1 0.967262 0.0469045 
1 0.975063 0.0454033 
0 0.983012 0.0446367 
1 0.986449 0.0444318 
0 0.996671 0.0463873 
1 0.995327 0.042897 
0.00577545 1 0.0422974 
0.0159041 1 0.0448681 
0.0236406 1 0.0485081 
0.0336393 1 0.0461081 
0.0448942 1 0.0448052 
0.0584834 1 0.0464343 
0.0634016 1 0.0445914 
0.0701812 1 0.0452311 
0.0854869 1 0.0460215 
0.0962081 1 0.0457796 
0.100493 1 0.0488624 
0.119212 1 0.0412063 
0.12079 1 0.045317 
0.134662 1 0.0464517 
0.14722 1 0.0408589 
0.150572 1 0.0429535 
0.183511 1 0.0419078 
0.198714 1 0.0446762 
0.206861 1 0.0458257 
0.226039 1 0.0423442 
0.234492 1 0.0496413 
0.242369 1 0.0491092 
0.255104 1 0.0418033 
0.267893 1 0.0418468 
0.275668 1 0.047247 
0.284666 1 0.0468805 
0.294622 1 0.0488539 
0.302236 1 0.0448658 
0.323305 1 0.04536 
0.345004 1 0.045302 
0.354688 1 0.0475017 
0.38693 1 0.0404497 
0.423799 1 0.0473786 
0.433683 1 0.0458185 
0.44212 1 0.0441635 
0.453711 1 0.0440792 
0.475863 1 0.0401004 
0.495098 1 0.0479093 
0.507317 1 0.0456177 
0.515546 1 0.0494907 
0.526535 1 0.0456029 
0.545881 1 0.0445741 
0.553217 1 0.048008 
0.566389 1 0.047241 
0.575775 1 0.0438003 
0.584319 1 0.0415579 
0.594502 1 0.0424333 
0.603136 1 0.0416751 
0.616485 1 0.0443008 
0.623931 1 0.0465812 
0.635461 1 0.0450265 
0.656916 1 0.0443722 
0.665805 1 0.0466795 
0.674302 1 0.0454136 
0.68658 1 0.0470505 
0.697078 1 0.0478048 
0.709989 1 0.0441814 
0.71621 1 0.0460729 
0.724838 1 0.0468736 
0.735815 1 0.0452214 
0.74501 1 0.0433314 
0.75289 1 0.0437971 
0.765052 1 0.0432379 
0.774247 1 0.042742 
0.809459 1 0.0440074 
0.819634 1 0.046484 
0.82563 1 0.0460709 
0.855897 1 0.0445658 
0.8665 1 0.0448925 
0.885089 1 0.0460146 
0.907892 1 0.046307 
0.915962 1 0.0414257 
0.931335 1 0.0454162 
0.946497 1 0.0454406 
0.950282 1 0.0431941 
0.966388 1 0.0463699 
0.978346 1 0.0461007 
0.983298 1 0.0443681 
0.265412 0.981821 1 
0.0248949 0 0.0570166 
0.0347056 0 0.0554997 
0.0570667 0 0.0560213 
0.0685089 0 0.055006 
0.075332 0 0.0566348 
0.0862803 0 0.0536196 
0.0936684 0 0.054071 
0.111639 0 0.0500733 
0.138763 0 0.0572441 
0.157854 0 0.0579935 
0.163434 0 0.0557911 
0.186854 0 0.0550973 
0.201222 0 0.0542759 
0.216237 0 0.0509239 
0.2494 0 0.0522382 
0.255279 0 0.0533614 
0.262568 0 0.0534114 
0.275549 0 0.0561201 
0.281356 0 0.0528544 
0.292312 0 0.0504502 
0.30276 0 0.0518001 
0.317322 0 0.0538955 
0.322741 0 0.0510713 
0.333598 0 0.053954 
0.345455 0 0.0546455 
0.359018 0 0.0552006 
0.37914 0 0.0548701 
0.38542 0 0.0552595 
0.395031 0 0.0510255 
0.408929 0 0.0553949 
0.418979 0 0.0588149 
0.424732 0 0.052399 
0.433338 0 0.0541495 
0.447186 0 0.056297 
0.452651 0 0.056559 
0.484775 0 0.0556919 
0.493773 0 0.0529128 
0.537081 0 0.0565976 
0.544423 0 0.059255 
0.557748 0 0.0503013 
0.565438 0 0.0578668 
0.577387 0 0.0556472 
0.587229 0 0.0567736 
0.596767 0 0.0536998 
0.603488 0 0.0548456 
0.616033 0 0.0502456 
0.624898 0 0.0551991 
0.638931 0 0.0553268 
0.653762 0 0.0544774 
0.665971 0 0.0544767 
0.684197 0 0.0545251 
0.694962 0 0.0517768 
0.707787 0 0.0505807 
0.717505 0 0.0591319 
0.722354 0 0.0516435 
0.734608 0 0.0546859 
0.741655 0 0.0502135 
0.75209 0 0.0581906 
0.767528 0 0.0559488 
0.77036 0 0.0534083 
0.783705 0 0.0564632 
0.790296 0 0.0572578 
0.807204 0 0.0562009 
0.828275 0 0.0560179 
0.833079 0 0.051256 
0.84477 0 0.0569242 
0.852967 0 0.0539054 
0.860902 0 0.0546279 
0.874004 0 0.0561758 
0.885449 0 0.0551454 
0.894857 0 0.0537402 
0.904893 0 0.0564973 
0.928517 0 0.05316 
0.932968 0 0.0562488 
0.963372 0 0.0541259 
0.975357 0 0.054396 
0.99017 0 0.0592412 
1 0.00720467 0.0537644 
0 0.0247039 0.0579797 
1 0.0389513 0.0506829 
0 0.0481406 0.0534274 
1 0.0429927 0.0535359 
0 0.0549115 0.0530347 
1 0.0534905 0.0539391 
0 0.0651046 0.0547573 
1 0.0637013 0.0535069 
0 0.0750302 0.0534207 
1 0.0725831 0.056537 
0 0.0819834 0.0530517 
1 0.0837164 0.0518625 
1 0.0948572 0.0540413 
0 0.10321 0.051978 
1 0.102293 0.0542679 
0 0.115943 0.0549135 
1 0.11998 0.0537034 
0 0.126913 0.0522877 
1 0.126005 0.0540895 
0 0.134393 0.0530747 
1 0.137535 0.0521756 
0 0.141049 0.0524787 
1 0.143385 0.0543179 
0 0.157432 0.053739 
1 0.154292 0.0537247 
0 0.164137 0.0565397 
1 0.168966 0.0583587 
0 0.171904 0.0552849 
1 0.183122 0.0536903 
0 0.193651 0.053799 
1 0.196597 0.0560389 
0 0.209537 0.0531553 
1 0.203597 0.0544431 
0 0.215792 0.0572828 
1 0.218354 0.0593153 
0 0.220582 0.0557535 
1 0.22213 0.0551907 
0 0.235422 0.0550455 
0 0.240127 0.0568368 
1 0.242299 0.0553818 
0 0.253651 0.0551557 
1 0.25412 0.0555251 
0 0.269045 0.0570471 
0 0.279021 0.0597371 
1 0.2724 0.053966 
0 0.282755 0.0583102 
1 0.28239 0.0554464 
0 0.295341 0.0549942 
0 0.308441 0.0534458 
1 0.303035 0.0572495 
0 0.31303 0.0524626 
1 0.314825 0.0558013 
0 0.325859 0.0548005 
1 0.321937 0.0508857 
0 0.335617 0.0501947 
1 0.338873 0.0525285 
0 0.347424 0.0564796 
1 0.343957 0.0542098 
0 0.357276 0.0562465 
1 0.358081 0.052205 
0 0.36746 0.058316 
1 0.36309 0.0547037 
1 0.378781 0.0597859 
0 0.381757 0.0545515 
1 0.386271 0.055569 
0 0.392426 0.0577445 
1 0.394598 0.0578566 
0 0.403315 0.057727 
1 0.407013 0.0570937 
0 0.415935 0.0544799 
1 0.412963 0.0544615 
0 0.435159 0.0564954 
0 0.447392 0.0569865 
1 0.449726 0.0578728 
0 0.45534 0.0587802 
1 0.45342 0.0549935 
0 0.4672 0.053407 
1 0.469995 0.0548974 
0 0.477431 0.0532038 
1 0.479026 0.0552476 
0 0.488446 0.0510305 
0 0.49902 0.0582777 
0 0.501856 0.0538093 
1 0.506915 0.0574924 
0 0.512797 0.0526814 
1 0.517269 0.0580189 
0 0.523628 0.0535325 
1 0.521332 0.0510626 
0 0.534625 0.0535046 
1 0.533229 0.0571927 
0 0.542895 0.0538624 
1 0.541443 0.0558935 
0 0.551342 0.0537679 
0 0.568375 0.0582939 
0 0.574244 0.0577275 
1 0.57332 0.0549606 
0 0.590767 0.0595586 
1 0.594001 0.0523426 
0 0.607963 0.0544162 
1 0.605784 0.0549071 
0 0.615403 0.0527284 
1 0.616052 0.0575172 
0 0.621786 0.0566103 
1 0.626801 0.0581245 
0 0.637934 0.0558504 
0 0.644816 0.0547554 
1 0.64454 0.0572429 
0 0.657806 0.0548751 
1 0.655872 0.0574761 
0 0.669637 0.0563677 
1 0.665106 0.054356 
0 0.682977 0.0549297 
1 0.685397 0.0536503 
1 0.69437 0.0532221 
0 0.702745 0.0543109 
1 0.704396 0.0569029 
0 0.717529 0.0522211 
1 0.717213 0.0539818 
0 0.725798 0.0555098 
0 0.733083 0.0569986 
1 0.732741 0.0571128 
0 0.744182 0.0530876 
1 0.754265 0.0571119 
1 0.766275 0.0565374 
0 0.779033 0.0565941 
1 0.776768 0.0544876 
1 0.788736 0.0571119 
0 0.797243 0.0587964 
0 0.804536 0.0562748 
1 0.805218 0.0572344 
0 0.81314 0.0517221 
1 0.811705 0.0539614 
0 0.823337 0.0505321 
0 0.834747 0.0549149 
1 0.832947 0.0522855 
0 0.845349 0.0554837 
1 0.846639 0.0548363 
1 0.856317 0.0569831 
0 0.865192 0.0547868 
1 0.866307 0.0537509 
0 0.878214 0.0514165 
0 0.886769 0.0549838 
1 0.885624 0.0539274 
0 0.892864 0.0556199 
1 0.897861 0.056154 
0 0.909298 0.0563194 
1 0.90368 0.0530587 
0 0.919311 0.0516416 
1 0.915771 0.0570471 
0 0.926201 0.0537874 
1 0.928024 0.0531875 
0 0.931195 0.053478 
1 0.934459 0.0541743 
0 0.943843 0.0507411 
1 0.945964 0.0538889 
0 0.957114 0.0555919 
1 0.956317 0.0560698 
0 0.972944 0.0528169 
1 0.978157 0.0557535 
0 0.984059 0.0535026 
1 0.982997 0.0540743 
0 0.993773 0.0510144 
0.00413626 1 0.0571656 
0.0168925 1 0.0554718 
0.0239689 1 0.0542197 
0.0335567 1 0.054217 
0.0450576 1 0.0547317 
0.0568404 1 0.0542128 
0.0630535 1 0.0517539 
0.0882789 1 0.0534957 
0.0975842 1 0.0566825 
0.109358 1 0.057459 
0.115547 1 0.0508247 
0.126903 1 0.0569666 
0.13583 1 0.0537311 
0.144558 1 0.0599655 
0.165416 1 0.0542938 
0.17637 1 0.0546179 
0.183304 1 0.0507195 
0.193835 1 0.0519845 
0.214758 1 0.0571874 
0.226937 1 0.0593575 
0.232614 1 0.0558983 
0.248638 1 0.0544581 
0.25729 1 0.0524591 
0.260077 1 0.0511452 
0.277903 1 0.0543864 
0.29629 1 0.0535039 
0.32304 1 0.0507798 
0.344541 1 0.0546998 
0.364062 1 0.0550407 
0.374188 1 0.0547212 
0.382022 1 0.0517685 
0.396892 1 0.0551425 
0.404278 1 0.0537256 
0.416594 1 0.0566706 
0.42206 1 0.0587147 
0.437609 1 0.0503557 
0.441447 1 0.0528757 
0.454794 1 0.0515133 
0.466911 1 0.055953 
0.4764 1 0.0559478 
0.488177 1 0.0569334 
0.495179 1 0.052667 
0.504226 1 0.0545806 
0.51421 1 0.0511023 
0.527231 1 0.0577977 
0.536323 1 0.0560404 
0.546606 1 0.050863 
0.554769 1 0.0556052 
0.560447 1 0.0571038 
0.57517 1 0.0549983 
0.629215 1 0.0596438 
0.633436 1 0.05694 
0.641136 1 0.0582717 
0.654335 1 0.0545387 
0.676819 1 0.0533566 
0.685448 1 0.0546349 
0.691184 1 0.0576674 
0.725578 1 0.0547482 
0.732429 1 0.0558773 
0.746549 1 0.0537241 
0.759393 1 0.0579123 
0.776011 1 0.0503441 
0.783359 1 0.0549168 
0.796211 1 0.0550763 
0.804001 1 0.0566993 
0.813152 1 0.0513307 
0.832032 1 0.0510739 
0.84419 1 0.0561123 
0.854762 1 0.0560643 
0.863784 1 0.0553085 
0.876845 1 0.0513736 
0.905278 1 0.0514829 
0.915842 1 0.0548622 
0.92168 1 0.0577912 
0.934813 1 0.052532 
0.941651 1 0.0586689 
0.961238 1 0.0524078 
0.97164 1 0.0549658 
0.986847 1 0.0576751 
0.995535 1 0.057789 
0.251664 0.983707 1 
0.0109394 0 0.0667966 
0.0251714 0 0.0659255 
0.031376 0 0.0601252 
0.0493357 0 0.0652189 
0.0612801 0 0.0616493 
0.0736179 0 0.0688395 
0.0860043 0 0.0632054 
0.0924982 0 0.0628481 
0.101613 0 0.0627291 
0.112405 0 0.0627068 
0.123919 0 0.0651123 
0.135403 0 0.0660227 
0.146793 0 0.0665498 
0.152785 0 0.0662145 
0.164695 0 0.0632624 
0.172646 0 0.0625107 
0.197183 0 0.0676217 
0.205427 0 0.0628263 
0.212771 0 0.0642739 
0.236031 0 0.067239 
0.24501 0 0.0631496 
0.268048 0 0.0638346 
0.307723 0 0.0664855 
0.311192 0 0.0620533 
0.324648 0 0.0640252 
0.334906 0 0.066804 
0.344362 0 0.0633689 
0.367578 0 0.0617544 
0.3761 0 0.0649262 
0.380222 0 0.0697742 
0.393924 0 0.0638116 
0.405676 0 0.0656377 
0.417144 0 0.0610107 
0.429179 0 0.0640536 
0.514634 0 0.0638889 
0.534222 0 0.0628704 
0.546068 0 0.0668126 
0.562746 0 0.0640829 
0.578398 0 0.0631578 
0.59732 0 0.0654595 
0.603983 0 0.0644761 
0.612043 0 0.0674692 
0.625844 0 0.0661625 
0.641647 0 0.0671412 
0.677456 0 0.067692 
0.685248 0 0.0620593 
0.694462 0 0.0684961 
0.702509 0 0.0631878 
0.712154 0 0.0686761 
0.72329 0 0.0619744 
0.755008 0 0.0633188 
0.765018 0 0.0645027 
0.778064 0 0.0606516 
0.783624 0 0.0653162 
0.795143 0 0.0691669 
0.806612 0 0.0668309 
0.812306 0 0.065359 
0.829194 0 0.0698123 
0.845419 0 0.0686104 
0.857435 0 0.069442 
0.860028 0 0.0633866 
0.877482 0 0.063038 
0.882772 0 0.0658165 
0.895039 0 0.0684932 
0.90438 0 0.0671245 
0.926712 0 0.065216 
0.937442 0 0.0672072 
0.943177 0 0.0648848 
0.957799 0 0.0653807 
0.96651 0 0.0646931 
0.976057 0 0.0674323 
0.983756 0 0.0657251 
0.99455 0 0.0634467 
1 0.00753111 0.0669157 
0 0.017782 0.0686194 
1 0.0137357 0.0610805 
0 0.028309 0.0606315 
1 0.0245691 0.0653299 
0 0.0318487 0.0688103 
1 0.0466725 0.0664858 
0 0.05711 0.0628379 
0 0.0665821 0.0672766 
1 0.0620607 0.063177 
1 0.0768295 0.0659406 
0 0.0877341 0.0684597 
1 0.0875448 0.0686727 
0 0.0950141 0.0641075 
0 0.107568 0.0629523 
0 0.114977 0.0689923 
0 0.121362 0.0623869 
1 0.129928 0.0648304 
0 0.135261 0.0625843 
1 0.13109 0.0697711 
0 0.141944 0.061898 
1 0.145223 0.062681 
0 0.154299 0.0688202 
1 0.156147 0.0650333 
0 0.163664 0.0637031 
1 0.162738 0.0673628 
0 0.172466 0.0630698 
0 0.185168 0.0606708 
1 0.185822 0.0642295 
0 0.195473 0.0655159 
1 0.191488 0.0635096 
0 0.205017 0.0647325 
1 0.207926 0.065311 
0 0.213803 0.0639879 
1 0.215642 0.0617495 
1 0.227371 0.062786 
1 0.234185 0.0628093 
0 0.245366 0.0613126 
0 0.254956 0.0675429 
0 0.266507 0.0652547 
1 0.263362 0.0602241 
0 0.271805 0.0675101 
1 0.280418 0.0657609 
0 0.290931 0.0616378 
1 0.293916 0.0665019 
1 0.305976 0.0647255 
0 0.313981 0.0655836 
1 0.316034 0.0689512 
0 0.320079 0.0693938 
0 0.336075 0.0670656 
1 0.334459 0.0645103 
0 0.344071 0.064341 
1 0.342829 0.0666903 
0 0.354088 0.0651087 
1 0.351403 0.0659569 
0 0.365495 0.0642528 
1 0.367556 0.0676995 
0 0.375416 0.0640126 
1 0.381704 0.0605002 
0 0.398208 0.0635348 
1 0.393699 0.0603378 
0 0.405861 0.0642897 
1 0.400457 0.0620281 
0 0.417122 0.0651817 
0 0.426464 0.0673138 
1 0.424989 0.066377 
0 0.431923 0.0645856 
1 0.434407 0.065161 
0 0.445336 0.0644406 
1 0.441141 0.0672975 
0 0.454212 0.0682795 
1 0.453376 0.0657945 
0 0.462081 0.0654016 
1 0.476254 0.0651646 
0 0.486441 0.0661616 
1 0.481863 0.0623861 
1 0.493784 0.065271 
0 0.504434 0.0641095 
1 0.508164 0.0602079 
0 0.516983 0.0640413 
1 0.514493 0.0683252 
0 0.524423 0.0611663 
0 0.536727 0.0644512 
1 0.538979 0.0660053 
0 0.547518 0.0670193 
1 0.542973 0.0653526 
0 0.551214 0.0690168 
1 0.553595 0.0672232 
0 0.560378 0.0632979 
1 0.565072 0.0642637 
0 0.575024 0.0643973 
0 0.580938 0.0689021 
1 0.589218 0.0658916 
0 0.595586 0.064734 
1 0.593889 0.0679092 
0 0.602013 0.0663491 
0 0.612411 0.0679193 
0 0.632806 0.0688613 
1 0.632661 0.0655976 
0 0.645077 0.0668417 
1 0.643633 0.0650181 
0 0.653343 0.0657291 
1 0.663803 0.0632548 
0 0.678607 0.0635422 
0 0.684788 0.0628419 
1 0.695162 0.0638448 
0 0.709024 0.0621908 
1 0.704606 0.0663054 
1 0.711714 0.0613045 
0 0.72467 0.0641482 
1 0.723629 0.0621257 
0 0.735833 0.0653037 
1 0.73665 0.0663586 
1 0.743154 0.0653363 
0 0.757293 0.0610363 
1 0.750508 0.0665289 
0 0.764573 0.0665384 
1 0.764417 0.0663724 
0 0.776372 0.0699515 
1 0.773934 0.0620769 
0 0.785809 0.0634481 
1 0.783908 0.0653498 
0 0.793987 0.0636991 
1 0.79191 0.0622071 
0 0.803975 0.0651033 
1 0.80469 0.0671104 
0 0.814913 0.0635603 
1 0.816047 0.0674148 
0 0.828217 0.0688201 
1 0.832036 0.0650219 
0 0.84455 0.0638758 
1 0.851926 0.0651078 
0 0.870443 0.0671666 
1 0.879254 0.0624186 
1 0.884739 0.0614101 
0 0.897236 0.064603 
1 0.896004 0.0650265 
0 0.905203 0.0653267 
1 0.904677 0.0649574 
1 0.913121 0.0647651 
0 0.922251 0.0644703 
1 0.92535 0.0658798 
1 0.933577 0.0614264 
0 0.946539 0.0658714 
1 0.942473 0.0672647 
0 0.952272 0.0685252 
1 0.951783 0.0606464 
0 0.960875 0.0628418 
1 0.967507 0.0650987 
0 0.972925 0.0662026 
1 0.977292 0.0640475 
0 0.989417 0.0677556 
1 0.983935 0.0691974 
0 0.994491 0.0646673 
1 0.992423 0.0647659 
0.00226883 1 0.0687539 
0.013117 1 0.0659267 
0.0238751 1 0.0694679 
0.033798 1 0.0676382 
0.0454282 1 0.0672314 
0.0582373 1 0.0646082 
0.0606788 1 0.0628928 
0.0767639 1 0.0641802 
0.0849552 1 0.0688892 
0.0900869 1 0.0681852 
0.105831 1 0.0628816 
0.124599 1 0.0675012 
0.130704 1 0.0683913 
0.144073 1 0.0663417 
0.159838 1 0.0675606 
0.169483 1 0.0634901 
0.171525 1 0.0677586 
0.183977 1 0.0628553 
0.198067 1 0.0627734 
0.20393 1 0.0678292 
0.216956 1 0.0654004 
0.221058 1 0.0648247 
0.231252 1 0.0664865 
0.25656 1 0.0650323 
0.263304 1 0.0613325 
0.27155 1 0.069137 
0.284081 1 0.0657204 
0.308451 1 0.0650825 
0.31955 1 0.0654742 
0.323523 1 0.0635322 
0.33787 1 0.0674092 
0.345246 1 0.0633788 
0.354416 1 0.0643259 
0.375569 1 0.067187 
0.395275 1 0.0681718 
0.406547 1 0.0659554 
0.417826 1 0.0624327 
0.422443 1 0.0657203 
0.433769 1 0.065207 
0.44509 1 0.0649815 
0.457481 1 0.0690562 
0.474468 1 0.0687869 
0.48506 1 0.0679236 
0.491377 1 0.0665038 
0.50368 1 0.0639394 
0.520246 1 0.0661038 
0.535825 1 0.0645329 
0.541219 1 0.0627379 
0.563657 1 0.067662 
0.575089 1 0.0628912 
0.58284 1 0.0667797 
0.609844 1 0.0688083 
0.617307 1 0.0621783 
0.623443 1 0.0652144 
0.635853 1 0.0627448 
0.6477 1 0.0616696 
0.652234 1 0.0626908 
0.665996 1 0.0634718 
0.677696 1 0.0665444 
0.680833 1 0.0654834 
0.694535 1 0.0655587 
0.703796 1 0.0602244 
0.712897 1 0.0631104 
0.724497 1 0.0642514 
0.746366 1 0.0645871 
0.766051 1 0.0619385 
0.771827 1 0.0622797 
0.7825 1 0.0657125 
0.796482 1 0.0659254 
0.802667 1 0.0670324 
0.812257 1 0.0656455 
0.823774 1 0.0655108 
0.846957 1 0.0667564 
0.854627 1 0.0665314 
0.874781 1 0.0629389 
0.886921 1 0.0660122 
0.896487 1 0.063586 
0.920137 1 0.0676992 
0.933479 1 0.0651325 
0.94593 1 0.064834 
0.954837 1 0.0653357 
0.967834 1 0.0634691 
0.973608 1 0.0610176 
0.980325 1 0.0639481 
0.994569 1 0.0672057 
0.242308 0.987259 1 
0.0100604 0 0.0779735 
0.0265052 0 0.0769897 
0.0389355 0 0.0728541 
0.0533852 0 0.0743227 
0.0603378 0 0.0798059 
0.0732864 0 0.0748498 
0.0923032 0 0.0733792 
0.108169 0 0.0747322 
0.114254 0 0.0761999 
0.125262 0 0.0766387 
0.134314 0 0.0725184 
0.146741 0 0.0751473 
0.164161 0 0.0744283 
0.172402 0 0.0758275 
0.195142 0 0.0771994 
0.203029 0 0.0794101 
0.211654 0 0.0758353 
0.223452 0 0.0726118 
0.234295 0 0.0726494 
0.244536 0 0.0713898 
0.25059 0 0.0796797 
0.278792 0 0.0787941 
0.298462 0 0.0772151 
0.30077 0 0.0783561 
0.314004 0 0.0795723 
0.329808 0 0.0784973 
0.334728 0 0.0751693 
0.345496 0 0.0721656 
0.357082 0 0.0766306 
0.361283 0 0.0745182 
0.389474 0 0.0715646 
0.395103 0 0.0764386 
0.401719 0 0.0701111 
0.416725 0 0.0716812 
0.424227 0 0.0759753 
0.443723 0 0.0755907 
0.452735 0 0.0764916 
0.4656 0 0.0748238 
0.475689 0 0.0746273 
0.483973 0 0.0746241 
0.492969 0 0.0750457 
0.509365 0 0.0714734 
0.516003 0 0.0754473 
0.526618 0 0.0715389 
0.549035 0 0.074936 
0.557841 0 0.0735603 
0.564963 0 0.0748848 
0.576 0 0.0765971 
0.581741 0 0.0740126 
0.593916 0 0.0718746 
0.608088 0 0.0784948 
0.618658 0 0.0760066 
0.62649 0 0.0745024 
0.633145 0 0.0776521 
0.664661 0 0.07472 
0.673787 0 0.0782381 
0.683297 0 0.0752047 
0.70418 0 0.0750957 
0.715309 0 0.0750601 
0.722907 0 0.0756475 
0.739948 0 0.0746871 
0.747329 0 0.0730069 
0.75971 0 0.0765133 
0.761175 0 0.0732158 
0.779167 0 0.0748667 
0.784487 0 0.0739025 
0.793892 0 0.0715541 
0.805557 0 0.0758835 
0.813032 0 0.0752597 
0.824697 0 0.0798622 
0.846546 0 0.0760354 
0.859919 0 0.0732341 
0.873036 0 0.073825 
0.892738 0 0.0798507 
0.91363 0 0.0733195 
0.935154 0 0.0722083 
0.94915 0 0.0783201 
0.954789 0 0.073629 
0.960289 0 0.0794804 
0.974611 0 0.0738275 
0.984514 0 0.0738046 
0 0.0149376 0.0738145 
1 0.0149594 0.0767792 
0 0.0282778 0.0793139 
1 0.0213304 0.0718946 
0 0.0364757 0.0775439 
1 0.0345904 0.0715169 
1 0.0422276 0.0738241 
1 0.0563677 0.0739917 
1 0.0654797 0.0752503 
0 0.0735146 0.0753495 
1 0.0797122 0.076273 
0 0.0881216 0.0716519 
1 0.0816087 0.0774136 
0 0.0984838 0.0762505 
1 0.0930371 0.074929 
0 0.104469 0.0751848 
1 0.106567 0.075998 
0 0.115978 0.0757166 
1 0.112996 0.0747939 
0 0.139637 0.0745072 
1 0.135646 0.0784727 
0 0.143513 0.0764811 
1 0.148905 0.0778767 
0 0.159789 0.071495 
1 0.157377 0.0752607 
0 0.166452 0.0754269 
0 0.172187 0.0719978 
1 0.177856 0.0734766 
0 0.187906 0.0709857 
1 0.189447 0.0785389 
0 0.191709 0.0728435 
1 0.198683 0.0721201 
0 0.216657 0.0754393 
0 0.226173 0.0737012 
1 0.225206 0.0749076 
0 0.235456 0.0749789 
0 0.243919 0.0780042 
1 0.244731 0.0763152 
0 0.257339 0.0716593 
1 0.258115 0.0740788 
0 0.266207 0.0750948 
1 0.267466 0.0765403 
0 0.27109 0.0752285 
1 0.273248 0.0780263 
0 0.288212 0.0735679 
1 0.283621 0.0779926 
0 0.298801 0.074014 
1 0.297019 0.073501 
0 0.304683 0.0761215 
1 0.306654 0.0751023 
0 0.315934 0.07286 
1 0.313994 0.0703453 
0 0.327953 0.0737727 
1 0.324833 0.0755135 
0 0.330283 0.0701156 
1 0.333965 0.0791684 
0 0.344089 0.079533 
1 0.340475 0.0793507 
0 0.355213 0.0765898 
1 0.35124 0.0705423 
0 0.363328 0.0745072 
1 0.366522 0.0735185 
0 0.375392 0.0710678 
1 0.378077 0.0747933 
0 0.388904 0.0752878 
1 0.386756 0.0739304 
0 0.396677 0.0702304 
0 0.404092 0.0772659 
1 0.406114 0.0767853 
1 0.411448 0.0746721 
1 0.424899 0.077877 
0 0.437151 0.0769506 
1 0.434565 0.0772571 
0 0.449768 0.0704274 
1 0.442656 0.0755864 
0 0.452 0.0771681 
1 0.455408 0.0757615 
0 0.468616 0.07553 
1 0.463972 0.0743279 
0 0.473199 0.0705751 
1 0.475873 0.0725967 
0 0.484882 0.0754633 
1 0.481988 0.0747637 
1 0.494977 0.0735118 
0 0.500724 0.0761079 
0 0.519231 0.07161 
1 0.516036 0.0798646 
0 0.527592 0.0753642 
1 0.526121 0.0705095 
0 0.531516 0.072317 
1 0.533893 0.0739468 
0 0.544525 0.0744691 
1 0.547021 0.0789198 
1 0.558843 0.0748865 
1 0.567477 0.0776053 
1 0.574584 0.0747716 
1 0.596868 0.0763298 
0 0.604574 0.075018 
1 0.604408 0.077985 
0 0.613249 0.0753649 
1 0.616357 0.0761905 
0 0.625987 0.0774252 
1 0.62324 0.075266 
0 0.630298 0.0751669 
1 0.634416 0.075233 
0 0.640609 0.0707393 
1 0.647701 0.0779766 
0 0.652938 0.0772817 
1 0.656739 0.0753815 
1 0.667304 0.070132 
0 0.672908 0.0750959 
1 0.675417 0.0748953 
1 0.684596 0.0735047 
1 0.695695 0.0768018 
0 0.714131 0.0733708 
0 0.726541 0.0707558 
1 0.72552 0.0767462 
1 0.733825 0.0751326 
1 0.740257 0.0767688 
0 0.754591 0.0782243 
1 0.751811 0.0767284 
0 0.766104 0.0753672 
1 0.765226 0.0771173 
0 0.775467 0.077437 
1 0.77298 0.0740624 
0 0.782048 0.0747822 
1 0.782269 0.0799972 
0 0.790732 0.0737162 
1 0.796784 0.071628 
0 0.803525 0.0771521 
1 0.80267 0.0756126 
0 0.812581 0.0731403 
1 0.814427 0.0768123 
0 0.826256 0.0711008 
1 0.826348 0.0792512 
0 0.834673 0.0783567 
1 0.839373 0.0782078 
0 0.849494 0.0752329 
0 0.857427 0.072498 
1 0.856701 0.0725638 
0 0.865303 0.0735185 
1 0.865057 0.0756085 
0 0.878897 0.0715278 
1 0.874306 0.0798149 
0 0.884373 0.0764833 
1 0.888394 0.0759991 
0 0.894722 0.07597 
1 0.894468 0.0745026 
0 0.903865 0.0768844 
0 0.910279 0.0747554 
1 0.918331 0.0778367 
0 0.926215 0.0789364 
1 0.925218 0.0778934 
0 0.936315 0.0741167 
1 0.938037 0.0783402 
1 0.945194 0.076901 
0 0.953974 0.0736822 
1 0.955226 0.0718245 
0 0.964262 0.0764382 
1 0.96608 0.0737576 
0 0.974341 0.0719717 
0 0.984307 0.0762713 
1 0.986187 0.072498 
0 0.99694 0.0741823 
1 0.99235 0.0737191 
0.0109085 1 0.0755221 
0.0349369 1 0.0767492 
0.0466328 1 0.0755783 
0.0569488 1 0.0778238 
0.0676313 1 0.0754079 
0.0740459 1 0.0769756 
0.081974 1 0.0749306 
0.103262 1 0.0772276 
0.114273 1 0.0769275 
0.127305 1 0.0724326 
0.134403 1 0.0704688 
0.153073 1 0.0778228 
0.163652 1 0.0757293 
0.17642 1 0.0724855 
0.191737 1 0.0733574 
0.218809 1 0.0753346 
0.227451 1 0.0745484 
0.235533 1 0.0780619 
0.242268 1 0.075848 
0.256707 1 0.0789506 
0.275905 1 0.0762234 
0.295802 1 0.0758912 
0.306274 1 0.0762653 
0.327807 1 0.0781572 
0.342857 1 0.0751642 
0.354738 1 0.0773254 
0.363689 1 0.0749307 
0.37571 1 0.0725042 
0.387829 1 0.0765912 
0.395275 1 0.0716967 
0.416755 1 0.076879 
0.42356 1 0.0732697 
0.433633 1 0.0737472 
0.444751 1 0.0760348 
0.45201 1 0.0714421 
0.462498 1 0.0744633 
0.477089 1 0.0774801 
0.483843 1 0.0750734 
0.493541 1 0.0719472 
0.508216 1 0.072549 
0.511994 1 0.0757938 
0.520183 1 0.0755572 
0.534353 1 0.0702564 
0.545351 1 0.0750821 
0.5528 1 0.0730935 
0.567855 1 0.0730194 
0.583441 1 0.0764206 
0.59416 1 0.0761222 
0.605836 1 0.0748982 
0.619827 1 0.0743453 
0.627199 1 0.075167 
0.637328 1 0.075516 
0.644039 1 0.0759127 
0.657317 1 0.0778797 
0.665981 1 0.0756539 
0.6736 1 0.0740595 
0.681815 1 0.0707727 
0.697126 1 0.0754198 
0.703691 1 0.07953 
0.720492 1 0.0795842 
0.73831 1 0.0729613 
0.746154 1 0.071527 
0.759076 1 0.0786341 
0.762999 1 0.0761229 
0.774857 1 0.0753236 
0.794342 1 0.0712443 
0.802358 1 0.0798881 
0.815247 1 0.0750568 
0.828618 1 0.076507 
0.837153 1 0.0728736 
0.845952 1 0.0733547 
0.85257 1 0.0736699 
0.894894 1 0.0714075 
0.914734 1 0.0753707 
0.925855 1 0.0759253 
0.933857 1 0.0776321 
0.966752 1 0.076428 
0.982051 1 0.0716027 
0.232902 0.981507 1 
0.0134428 0 0.0861669 
0.0244538 0 0.0841338 
0.0309508 0 0.0857717 
0.0761375 0 0.0839797 
0.0853886 0 0.0838325 
0.0944238 0 0.0840963 
0.107715 0 0.0879542 
0.117499 0 0.0878428 
0.127517 0 0.0864397 
0.136117 0 0.0820804 
0.147693 0 0.0850816 
0.163533 0 0.0861534 
0.175782 0 0.0875091 
0.184574 0 0.0860009 
0.194042 0 0.0861312 
0.216007 0 0.085885 
0.23695 0 0.0891172 
0.247928 0 0.0899925 
0.25165 0 0.0801608 
0.260965 0 0.08841 
0.273083 0 0.0862004 
0.286376 0 0.0818534 
0.295174 0 0.0852465 
0.318407 0 0.0884125 
0.325948 0 0.0885759 
0.332066 0 0.0833899 
0.347949 0 0.0891078 
0.356523 0 0.0802382 
0.378157 0 0.0840014 
0.394869 0 0.0841332 
0.403302 0 0.0811974 
0.412792 0 0.0848098 
0.424411 0 0.084487 
0.430143 0 0.089788 
0.440383 0 0.0847332 
0.453909 0 0.0814194 
0.465481 0 0.0854756 
0.48286 0 0.0852493 
0.492409 0 0.0850442 
0.521233 0 0.0851225 
0.534396 0 0.0871262 
0.545434 0 0.0861321 
0.556714 0 0.0823586 
0.568684 0 0.0821315 
0.574431 0 0.0858091 
0.585021 0 0.0846119 
0.598055 0 0.0822217 
0.615358 0 0.0827552 
0.624132 0 0.0874313 
0.633833 0 0.0850348 
0.640922 0 0.0847287 
0.654262 0 0.086356 
0.685061 0 0.0823591 
0.709148 0 0.0858407 
0.725653 0 0.0871771 
0.73622 0 0.082205 
0.74442 0 0.0827239 
0.754791 0 0.0847919 
0.764209 0 0.0849142 
0.771226 0 0.0860626 
0.792896 0 0.0843662 
0.806969 0 0.0867068 
0.825249 0 0.087615 
0.830539 0 0.0843323 
0.863514 0 0.0866352 
0.871746 0 0.0864913 
0.883959 0 0.0884628 
0.901488 0 0.0819259 
0.915742 0 0.085339 
0.926279 0 0.0852243 
0.943223 0 0.0841703 
0.95571 0 0.0833189 
0.968285 0 0.0852845 
0.975003 0 0.0835974 
0.993065 0 0.085414 
1 0.00533995 0.082898 
0 0.010307 0.0871133 
1 0.0140222 0.0822067 
0 0.0248616 0.0846403 
1 0.0260292 0.0825933 
0 0.0367079 0.0864061 
1 0.0379357 0.0885521 
0 0.0474679 0.0867718 
1 0.0439356 0.0858127 
0 0.0576682 0.0855098 
1 0.0559881 0.081916 
0 0.0697711 0.0886493 
1 0.0622071 0.0885367 
0 0.0722677 0.0834507 
1 0.08375 0.0824914 
0 0.0945732 0.0864885 
1 0.0937566 0.085242 
0 0.101259 0.0889137 
1 0.10475 0.082938 
1 0.114267 0.0834198 
0 0.121495 0.08612 
1 0.125076 0.0827965 
0 0.137984 0.0880266 
1 0.133751 0.0870572 
0 0.14577 0.0864267 
1 0.14668 0.0826667 
0 0.158284 0.0830919 
1 0.151126 0.0877998 
0 0.164645 0.0834989 
1 0.161832 0.0857534 
0 0.174774 0.0848999 
0 0.185349 0.0842423 
1 0.184812 0.0879496 
0 0.192076 0.084325 
1 0.194904 0.0826839 
0 0.200522 0.0808933 
0 0.215583 0.0886961 
1 0.218003 0.0857873 
1 0.225555 0.0814413 
0 0.238171 0.0857529 
1 0.238706 0.0882274 
0 0.243965 0.0836324 
1 0.244654 0.0857886 
1 0.253911 0.0869823 
0 0.265233 0.0845784 
1 0.268988 0.089936 
0 0.277014 0.0854474 
1 0.276993 0.0858707 
0 0.287862 0.0834869 
1 0.288839 0.0826548 
0 0.295932 0.0851282 
1 0.297936 0.0850235 
0 0.307774 0.0845723 
1 0.306498 0.086351 
0 0.31119 0.0876753 
1 0.314703 0.0851721 
0 0.324994 0.085623 
1 0.324433 0.0852867 
0 0.339362 0.0828504 
1 0.338015 0.0896845 
0 0.343819 0.0898353 
0 0.359802 0.0854869 
1 0.35371 0.0858218 
1 0.366317 0.0839284 
0 0.374927 0.0857706 
0 0.385365 0.0858127 
1 0.386738 0.0844174 
0 0.394842 0.0820815 
1 0.394181 0.0847551 
0 0.405432 0.0870414 
1 0.407505 0.0811822 
1 0.417797 0.0842368 
0 0.424128 0.089517 
1 0.428976 0.0826881 
0 0.438761 0.083055 
1 0.433123 0.0852553 
0 0.446691 0.0846741 
1 0.442606 0.0827586 
0 0.45881 0.0859375 
0 0.466578 0.0867726 
1 0.466844 0.0814 
0 0.473084 0.0857608 
1 0.472556 0.0865303 
0 0.480863 0.0814247 
0 0.495883 0.0862961 
0 0.503159 0.0882107 
1 0.50967 0.0824552 
0 0.513858 0.0855473 
1 0.515672 0.0892655 
0 0.526938 0.0834134 
1 0.526942 0.0852473 
0 0.538422 0.0899527 
0 0.541077 0.0828551 
1 0.544064 0.0854786 
0 0.556712 0.0824552 
1 0.558683 0.0873408 
0 0.564918 0.085085 
1 0.567637 0.0809764 
0 0.57121 0.0841977 
1 0.575185 0.0844488 
1 0.589386 0.0852533 
0 0.593783 0.0833908 
0 0.603897 0.084403 
1 0.604633 0.0829959 
0 0.618928 0.087876 
1 0.6197 0.0876585 
0 0.620918 0.0889807 
1 0.629388 0.0885454 
0 0.645421 0.084726 
1 0.643026 0.0876358 
0 0.652032 0.0848197 
1 0.653936 0.0842983 
0 0.664732 0.0863215 
1 0.662711 0.0868895 
0 0.671585 0.089936 
1 0.679716 0.082921 
0 0.683726 0.0863001 
1 0.683965 0.0895169 
0 0.704453 0.08417 
1 0.705909 0.0841784 
0 0.726825 0.0817336 
1 0.725496 0.085471 
0 0.737774 0.0841364 
1 0.733022 0.0881437 
0 0.741087 0.0847402 
1 0.756376 0.0827213 
0 0.765425 0.0810014 
1 0.775163 0.0861041 
0 0.787981 0.0802959 
1 0.785188 0.0843939 
0 0.797271 0.08548 
1 0.790293 0.0807107 
0 0.806575 0.0892153 
1 0.804353 0.0849365 
0 0.815539 0.0843623 
1 0.81303 0.087172 
0 0.827272 0.0838532 
1 0.825662 0.0847375 
0 0.834806 0.0818323 
1 0.836336 0.0894834 
0 0.848843 0.0856371 
1 0.84409 0.0837656 
0 0.8503 0.0864395 
1 0.856829 0.0858457 
1 0.866787 0.0864435 
1 0.877161 0.0836388 
0 0.88477 0.0844197 
0 0.893889 0.0851117 
1 0.8983 0.0836758 
0 0.903036 0.0881534 
1 0.904779 0.0861095 
0 0.910464 0.0865721 
1 0.927873 0.0839367 
0 0.946451 0.0835661 
1 0.947775 0.0854746 
0 0.957537 0.0829252 
1 0.959093 0.0850198 
0 0.966225 0.0833721 
1 0.966637 0.089718 
0 0.979385 0.0809265 
1 0.977728 0.0866055 
0 0.982479 0.0843363 
1 0.987508 0.0822058 
0 0.995386 0.0850072 
1 0.994733 0.0846703 
0.00455984 1 0.0867825 
0.0147971 1 0.0854432 
0.0237087 1 0.0849635 
0.0418631 1 0.0851878 
0.0561385 1 0.0842546 
0.0646192 1 0.0830856 
0.0739847 1 0.0827442 
0.0949355 1 0.0859958 
0.10614 1 0.0865556 
0.126012 1 0.0864706 
0.146272 1 0.0869933 
0.15578 1 0.0887554 
0.187331 1 0.0854247 
0.195697 1 0.0853576 
0.207419 1 0.0881983 
0.223311 1 0.0877672 
0.232723 1 0.0882997 
0.244668 1 0.0811161 
0.256863 1 0.0866976 
0.275892 1 0.0836382 
0.306676 1 0.0856615 
0.314612 1 0.0860488 
0.329284 1 0.0847196 
0.340688 1 0.084084 
0.35253 1 0.0830495 
0.377079 1 0.086933 
0.399936 1 0.0830472 
0.40512 1 0.0871224 
0.418506 1 0.0820565 
0.424297 1 0.0854087 
0.434416 1 0.0815892 
0.446579 1 0.0871644 
0.450592 1 0.0852145 
0.461844 1 0.0801124 
0.492879 1 0.0872543 
0.506543 1 0.0870722 
0.516445 1 0.0840914 
0.52411 1 0.0835508 
0.534568 1 0.0855559 
0.544997 1 0.0848883 
0.555844 1 0.0846266 
0.575519 1 0.0889991 
0.588724 1 0.0854944 
0.604469 1 0.0836107 
0.626798 1 0.0867824 
0.644596 1 0.0884172 
0.654628 1 0.0838474 
0.660224 1 0.0811594 
0.687818 1 0.0849169 
0.705343 1 0.0898771 
0.710992 1 0.0868489 
0.724901 1 0.0834414 
0.733586 1 0.0827421 
0.758696 1 0.0861294 
0.764632 1 0.0836634 
0.779582 1 0.0895716 
0.787521 1 0.0849901 
0.792207 1 0.081681 
0.804646 1 0.0853386 
0.810746 1 0.0865237 
0.828003 1 0.0877515 
0.837891 1 0.0837556 
0.845784 1 0.0838805 
0.863683 1 0.0857247 
0.876969 1 0.0861573 
0.88126 1 0.0867683 
0.890207 1 0.0877993 
0.903228 1 0.0844716 
0.913472 1 0.0834589 
0.922642 1 0.0880354 
0.932892 1 0.0869963 
0.95795 1 0.0862919 
0.967056 1 0.0861652 
0.983364 1 0.0848533 
0.992625 1 0.0865563 
0.225184 0.984277 1 
0.0173471 0 0.0936831 
0.0255667 0 0.0950914 
0.0475006 0 0.0954179 
0.0557269 0 0.0950571 
0.0646183 0 0.090775 
0.0766141 0 0.0943148 
0.0856467 0 0.093271 
0.104794 0 0.0949239 
0.113979 0 0.0970168 
0.125419 0 0.0966444 
0.136869 0 0.0960381 
0.147463 0 0.0950721 
0.151741 0 0.0951599 
0.166897 0 0.099587 
0.175213 0 0.0948957 
0.194858 0 0.0958956 
0.209353 0 0.0935708 
0.214564 0 0.09385 
0.226467 0 0.0953204 
0.233151 0 0.0950258 
0.247177 0 0.0925176 
0.253436 0 0.0926376 
0.268804 0 0.093866 
0.276407 0 0.0928589 
0.287155 0 0.0946312 
0.294851 0 0.0934023 
0.303945 0 0.093549 
0.311679 0 0.0926359 
0.331312 0 0.0915242 
0.354157 0 0.0985158 
0.369676 0 0.0907553 
0.387341 0 0.0965768 
0.406466 0 0.0918514 
0.410117 0 0.0919531 
0.434423 0 0.0929392 
0.446515 0 0.0931258 
0.452754 0 0.0966026 
0.4668 0 0.0976968 
0.473192 0 0.0901272 
0.484375 0 0.0906372 
0.492682 0 0.0945692 
0.514919 0 0.0942372 
0.528588 0 0.0969935 
0.538037 0 0.0946115 
0.548109 0 0.0922718 
0.554828 0 0.0969294 
0.56359 0 0.0952445 
0.573565 0 0.0924322 
0.583535 0 0.093536 
0.59582 0 0.0974582 
0.608283 0 0.0931586 
0.612473 0 0.0954152 
0.6367 0 0.0924002 
0.650527 0 0.0927754 
0.663518 0 0.0966072 
0.67332 0 0.0949594 
0.682614 0 0.0948306 
0.696794 0 0.0925791 
0.704654 0 0.0944643 
0.71414 0 0.0944488 
0.72673 0 0.0995407 
0.748361 0 0.0939428 
0.75709 0 0.095309 
0.764804 0 0.094701 
0.776947 0 0.0954961 
0.79161 0 0.0970152 
0.805086 0 0.0963036 
0.818417 0 0.0945026 
0.837543 0 0.0970563 
0.855257 0 0.0950177 
0.867533 0 0.0954535 
0.873832 0 0.0927516 
0.88439 0 0.0959247 
0.896144 0 0.0979719 
0.913866 0 0.09375 
0.923665 0 0.090941 
0.936806 0 0.0960016 
0.947738 0 0.0948776 
0.953826 0 0.0956832 
0.979813 0 0.0982016 
0.986126 0 0.0988207 
1 0.00495613 0.0921379 
0 0.0177509 0.0939496 
1 0.0159929 0.0951119 
0 0.0213619 0.0915308 
0 0.0351543 0.093344 
1 0.0329053 0.0956964 
0 0.0456123 0.0960722 
1 0.0458078 0.095198 
1 0.0553486 0.095801 
0 0.0673741 0.0957239 
0 0.0710956 0.0967512 
1 0.0746886 0.0993406 
0 0.0882608 0.0968028 
0 0.0979871 0.0961455 
1 0.0966394 0.0943732 
0 0.104684 0.09306 
1 0.104968 0.0920096 
0 0.113448 0.0944069 
1 0.117465 0.0957763 
0 0.127925 0.0949463 
1 0.128537 0.0974962 
0 0.135384 0.0912615 
1 0.131799 0.0920354 
1 0.144985 0.0958306 
1 0.154531 0.0960069 
0 0.165328 0.09318 
0 0.17728 0.0975801 
1 0.177809 0.0951774 
0 0.184706 0.0979353 
1 0.183268 0.0970578 
0 0.19023 0.0948788 
1 0.193857 0.0909597 
0 0.207223 0.0980118 
1 0.201281 0.0984943 
0 0.217351 0.0921183 
1 0.210626 0.0923474 
0 0.226617 0.0961646 
1 0.224537 0.094916 
0 0.236117 0.0956715 
1 0.236429 0.0963817 
1 0.249171 0.0906908 
0 0.25516 0.0985106 
1 0.253551 0.0943717 
0 0.262712 0.098663 
0 0.272934 0.0939628 
1 0.27456 0.0986298 
0 0.287577 0.0910097 
1 0.283828 0.0948619 
0 0.292595 0.0942384 
1 0.290055 0.092051 
0 0.300229 0.0987307 
1 0.307221 0.0965157 
1 0.315588 0.0975125 
1 0.321205 0.098206 
0 0.338744 0.0924376 
