# .PCD v0.7 - Point Cloud Data file format
VERSION 0.7
FIELDS x y z
SIZE 4 4 4
TYPE F F F
COUNT 1 1 1
WIDTH 2000
HEIGHT 1
VIEWPOINT 0 0 0 1 0 0 0
POINTS 2000
DATA ascii
0.34213313 0 0.80531788
0.35738501 0 0.80678958
0.36567488 0 0.80610514
0.38477463 0 0.80965924
0.39483705 0 0.80590016
0.40049136 0 0.80171323
0.41104245 0 0.80101943
0.42512232 0 0.80879188
0.43399432 0 0.80321908
0.44342279 0 0.80474436
0.45907524 0 0.80597591
0.46994635 0 0.8086409
0.47333908 0 0.8049168
0.48144385 0 0.80543333
0.49301854 0 0.80092412
0.5061332 0 0.8044281
0.51523745 0 0.80457371
0.52167296 0 0.80413729
0.5370422 0 0.8064664
0.54988122 0 0.80712992
0.55592209 0 0.80604005
0.56310129 0 0.80708128
0.5947572 0 0.80341339
0.60913289 0 0.80537772
0.61555743 0 0.8065241
0.62255931 0 0.80463064
0.64301914 0 0.80147648
0.65641546 0 0.80069548
0.67843407 0 0.80368185
0.70892286 0 0.80050492
0.7160905 0 0.80616522
0.72000867 0 0.8069976
0.73054546 0 0.80428916
0.74650711 0 0.80742228
0.75169408 0 0.80233014
0.76444632 0 0.80629408
0.77878267 0 0.8056069
0.79588026 0 0.80343503
0.80107194 0 0.80000913
0.81537169 0 0.80088568
0.82480741 0 0.80644906
0.83419269 0 0.80260402
0.84228826 0 0.80299014
0.85414028 0 0.80254173
0.86607182 0 0.80434382
0.87566578 0 0.80545211
0.88222474 0 0.80067647
0.90385246 0 0.80667567
0.9125492 0 0.80743229
0.94580227 0 0.80639142
0.97601557 0 0.80120027
0.98452759 0 0.80350095
1 0.0091975927 0.8055163
0 0.015463591 0.80567557
1 0.016123384 0.80625641
1 0.021143436 0.8080107
1 0.036137361 0.80341953
0 0.047683805 0.80471504
1 0.043199956 0.80229211
0 0.051802576 0.80867064
1 0.053145271 0.80235571
0 0.063346744 0.80005223
1 0.066482186 0.80456525
0 0.079118669 0.800946
1 0.072053909 0.8039782
1 0.093113929 0.80374217
1 0.10394754 0.80425817
0 0.11839825 0.80015451
1 0.11623073 0.80447519
0 0.12437558 0.8028934
1 0.12470555 0.80524278
0 0.13409109 0.80296904
1 0.13343388 0.80509472
0 0.15715474 0.80202085
1 0.15583548 0.80906647
0 0.16985065 0.80675113
0 0.17878586 0.80535901
1 0.17805225 0.80660349
0 0.1852698 0.80734992
1 0.18239978 0.80480659
0 0.19643217 0.80388921
1 0.19324334 0.80561858
0 0.20773393 0.80154663
1 0.20979738 0.80968386
1 0.21615776 0.80371642
0 0.22804534 0.80321085
1 0.22599845 0.80250674
0 0.23779064 0.80412096
1 0.23472533 0.80311292
0 0.2442441 0.8078782
1 0.24261045 0.80106044
0 0.25812095 0.8042289
1 0.25622815 0.80599183
1 0.26676869 0.80168879
1 0.27289164 0.80129224
0 0.28174976 0.8064276
1 0.28943822 0.80642056
0 0.2943081 0.80635875
1 0.29263642 0.80197334
0 0.30660051 0.80548942
1 0.30418295 0.804259
0 0.31676465 0.80404884
0 0.32481852 0.80504
1 0.32169521 0.80742836
0 0.33577669 0.80913305
1 0.33436659 0.80382901
1 0.34264901 0.80777401
0 0.35746628 0.8045522
1 0.35474396 0.80621696
0 0.36576647 0.8008343
1 0.36674592 0.80504555
1 0.37739718 0.8098827
0 0.38110137 0.80759746
1 0.3830598 0.80844879
0 0.39480862 0.80432808
0 0.40424883 0.80826437
1 0.40649521 0.80743647
0 0.41239822 0.80206454
0 0.42278638 0.80614442
1 0.42266983 0.80434191
0 0.43016928 0.80991149
1 0.43606412 0.80473584
0 0.44892794 0.80478382
1 0.44773859 0.80640173
0 0.45767388 0.80502915
1 0.45571309 0.808631
0 0.46321246 0.80357182
1 0.46378168 0.80684048
0 0.47746694 0.80074918
1 0.47596291 0.80797803
0 0.48644114 0.80407017
1 0.48310405 0.80772567
0 0.49878079 0.80754578
1 0.49525231 0.80244267
0 0.50477791 0.80620325
1 0.50367928 0.80652547
0 0.51606077 0.80672818
1 0.51317543 0.80559725
0 0.52311546 0.80456305
1 0.52316147 0.80901194
1 0.53423846 0.80574381
1 0.54950929 0.80330896
1 0.55509889 0.80572236
0 0.56774127 0.80663508
1 0.56652939 0.8047477
1 0.57202041 0.80908883
0 0.58146578 0.80069554
1 0.58190346 0.80220544
0 0.59583074 0.80272889
1 0.59773719 0.80500925
0 0.6006062 0.80982232
1 0.60568726 0.80319399
0 0.61836582 0.80051935
0 0.62208164 0.80359042
1 0.63283885 0.80124211
0 0.64412445 0.80260611
1 0.64770734 0.80620599
0 0.65669417 0.80659711
1 0.6540603 0.80644679
0 0.66378343 0.80367696
1 0.66689152 0.80500859
0 0.67367029 0.80522799
1 0.67990196 0.80505252
1 0.68308783 0.80281967
0 0.69501221 0.80350029
1 0.70737815 0.80377328
0 0.71193379 0.80365944
1 0.71600264 0.80389643
1 0.72790509 0.80080307
0 0.73311424 0.80872154
1 0.73418945 0.80455256
0 0.74462563 0.80449456
1 0.744964 0.80503482
0 0.75185841 0.80343884
1 0.75651497 0.80414468
1 0.76627696 0.80033541
1 0.77296901 0.80580819
0 0.78654569 0.80855685
1 0.78964204 0.8074348
0 0.7901504 0.80123591
1 0.79853439 0.8006494
1 0.80910802 0.80120295
0 0.81224352 0.80305374
1 0.8125093 0.80895281
0 0.8277055 0.80796158
1 0.82735008 0.80258942
0 0.83480275 0.80659246
1 0.8345803 0.8063525
0 0.84961396 0.80274403
1 0.84428149 0.8015871
0 0.85007858 0.8078379
0 0.86148059 0.80531949
1 0.86389667 0.80576259
0 0.87622511 0.80355299
1 0.87392199 0.80582505
0 0.88465494 0.8057552
1 0.88729602 0.80289882
0 0.89399445 0.80605954
1 0.89233971 0.80445337
0 0.90200222 0.80303526
1 0.906039 0.80663782
0 0.91544777 0.80497551
1 0.91467172 0.80124295
0 0.92530924 0.80251211
1 0.92562473 0.80344146
0 0.93376768 0.80676901
1 0.93563616 0.80489314
0 0.94319248 0.80714631
1 0.94489986 0.80715483
0 0.95527846 0.80799812
1 0.96374524 0.80695653
0 0.97389644 0.80621779
1 0.97618753 0.80013126
0 0.98603058 0.80459625
1 0.98056531 0.80602014
0 0.99935943 0.80383003
1 0.99593896 0.80935258
0.0049570403 1 0.80372316
0.016914338 1 0.80169588
0.022808641 1 0.80488479
0.03492552 1 0.80638647
0.045209572 1 0.80364722
0.059380352 1 0.80705261
0.06502676 1 0.80614716
0.075301737 1 0.80318046
0.082155943 1 0.80927581
0.094002604 1 0.8089776
0.11355983 1 0.80671704
0.14452231 1 0.80227143
0.16304094 1 0.80378008
0.18632041 1 0.80644631
0.19540305 1 0.80425239
0.205329 1 0.8092916
0.21627279 1 0.80163926
0.22663891 1 0.80348539
0.23469555 1 0.80465472
0.24498968 1 0.80618411
0.25756294 1 0.80709213
0.26630616 1 0.80056208
0.27601361 1 0.80400723
0.28638583 1 0.80725276
0.3053017 1 0.80273199
0.31317505 1 0.80201513
0.32943213 1 0.80941421
0.33793253 1 0.80871642
0.34515625 1 0.80659825
0.35853618 1 0.80248487
0.36897278 1 0.80510455
0.37539443 1 0.80168521
0.38071391 1 0.80115235
0.39150736 1 0.80790466
0.409439 1 0.80117178
0.41744116 1 0.8069877
0.42624518 1 0.80095267
0.43582955 1 0.80269784
0.44970655 1 0.80590016
0.45590174 1 0.80342215
0.4761779 1 0.80138701
0.48047689 1 0.80646801
0.49653736 1 0.80343008
0.50629342 1 0.80578655
0.52353907 1 0.80928224
0.53623533 1 0.80673128
0.54794621 1 0.80452675
0.55571926 1 0.80890471
0.56803477 1 0.80296552
0.5776282 1 0.80432796
0.58615685 1 0.80690306
0.59401172 1 0.80186301
0.60385662 1 0.80478638
0.61685741 1 0.80547315
0.62104636 1 0.80721003
0.63499731 1 0.80290967
0.64492261 1 0.80409825
0.66482008 1 0.8058244
0.67575228 1 0.80323356
0.68180609 1 0.80707324
0.69463623 1 0.80291331
0.71558714 1 0.80516833
0.73472214 1 0.80756462
0.74556804 1 0.80928224
0.75613534 1 0.8061462
0.77391839 1 0.80331063
0.78688323 1 0.80458027
0.791493 1 0.80574781
0.81585652 1 0.80303609
0.82337511 1 0.8017239
0.83858037 1 0.80939537
0.84058297 1 0.80322582
0.85596991 1 0.80360591
0.86547208 1 0.80450356
0.87735796 1 0.80379856
0.88719833 1 0.80197132
0.89271516 1 0.80673468
0.90361577 1 0.80724305
0.91295111 1 0.8050856
0.92500859 1 0.80461746
0.93873745 1 0.80588126
0.95444691 1 0.80563945
0.98264784 1 0.80486357
0.99460685 1 0.80324382
0.0027389973 0.0025938004 0.81503814
0.019367874 0 0.81540781
0.024838716 0 0.81413722
0.032526672 0 0.81350076
0.046613961 0 0.81377333
0.055769593 0 0.8143729
0.069115162 0 0.81904113
0.070952833 0 0.81963575
0.081251115 0 0.81534839
0.09806326 0 0.81434321
0.11787915 0 0.81420118
0.12428895 0 0.8162266
0.13688666 0 0.81952041
0.15626454 0 0.81490809
0.16607279 0 0.81165898
0.17319138 0 0.81604546
0.18579033 0 0.81599855
0.19902869 0 0.81039393
0.20412102 0 0.81779689
0.21711573 0 0.81577021
0.22360879 0 0.81559283
0.23454046 0 0.81307781
0.24931985 0 0.81721884
0.25313514 0 0.81538892
0.2744129 0 0.81476116
0.28470382 0 0.81566381
0.29470271 0 0.81461179
0.30356598 0 0.81706947
0.31371564 0 0.81592005
0.32596463 0 0.81246245
0.3361536 0 0.81393898
0.34925589 0 0.81409472
0.35622507 0 0.81697547
0.3728019 0 0.81082684
0.38728416 0 0.8158921
0.39427862 0 0.81584519
0.40815443 0 0.81499392
0.41931602 0 0.8146559
0.42881972 0 0.81315702
0.4342097 0 0.81396818
0.44584453 0 0.81352359
0.45235986 0 0.81295061
0.46709633 0 0.81233627
0.47226635 0 0.81404167
0.48689964 0 0.81674403
0.4903456 0 0.81373852
0.50494343 0 0.81450999
0.51795697 0 0.815256
0.54603267 0 0.81443202
0.55591518 0 0.81524658
0.56009817 0 0.81831974
0.578731 0 0.81219947
0.59706098 0 0.81406736
0.60878873 0 0.81854349
0.61614537 0 0.81540531
0.62116754 0 0.81872988
0.6447531 0 0.81193638
0.65617919 0 0.81521857
0.68113065 0 0.81521106
0.69627774 0 0.81598288
0.70549613 0 0.8158173
0.7128616 0 0.81404823
0.72152042 0 0.8125751
0.73718977 0 0.8159008
0.74837959 0 0.81272531
0.75772411 0 0.81802136
0.76682872 0 0.81678325
0.7756412 0 0.81599969
0.78720921 0 0.81431806
0.79471707 0 0.81442302
0.80160791 0 0.81624836
0.8131156 0 0.81792808
0.8328113 0 0.81377268
0.84489369 0 0.81450701
0.85124862 0 0.81461948
0.86813033 0 0.81463647
0.87819183 0 0.81757247
0.88495702 0 0.81490028
0.89290619 0 0.81420827
0.9072274 0 0.81406343
0.91047221 0 0.81467557
0.92459667 0 0.81306189
0.93387687 0 0.81586379
0.94294369 0 0.81323206
0.95874691 0 0.81285673
0.96828598 0 0.81827313
0.97661459 0 0.81814229
0.9887749 0 0.81738693
1 0.0061587095 0.81587672
0 0.018194079 0.81274951
1 0.016040921 0.81235939
0 0.026021093 0.81313288
1 0.020831585 0.81195354
1 0.03292191 0.8140204
0 0.04321593 0.8156684
0 0.053956311 0.81480581
1 0.056149453 0.81526518
0 0.065031707 0.81680214
1 0.067788363 0.81983346
1 0.073535025 0.8196153
1 0.084081173 0.81641179
1 0.094322622 0.81595135
0 0.10260001 0.81229091
1 0.10040838 0.81567818
0 0.11269811 0.81877714
1 0.11691099 0.81267238
1 0.12503594 0.81291783
0 0.13247269 0.81657386
1 0.13446808 0.81127244
0 0.14740103 0.8145895
1 0.14735776 0.81386489
0 0.15592456 0.81134009
1 0.15836915 0.81437039
0 0.16504385 0.81423688
1 0.16470164 0.81681967
0 0.17423229 0.81650752
1 0.17529815 0.81759453
0 0.18754768 0.81415653
1 0.18562418 0.81698412
0 0.19435571 0.81456763
0 0.20579225 0.81508994
1 0.20736812 0.815283
0 0.21422325 0.81523895
1 0.21594109 0.81333727
0 0.22845876 0.81740409
1 0.22756928 0.81153613
0 0.23690337 0.81243658
1 0.23853171 0.81665087
1 0.24210064 0.81435174
0 0.25284404 0.81265247
1 0.25625071 0.81350726
0 0.27501205 0.81862497
1 0.27688992 0.81650817
0 0.28824735 0.81302589
1 0.28078318 0.81501758
1 0.29555526 0.81651223
1 0.30703962 0.81182981
0 0.31702036 0.8101213
1 0.31329247 0.81619966
0 0.32105374 0.81026882
1 0.32413971 0.81595761
1 0.33517259 0.81272495
0 0.34466815 0.81077147
0 0.35554725 0.81545651
1 0.35482097 0.81582415
0 0.36562943 0.81413609
0 0.37483326 0.81369424
0 0.38727474 0.81450671
1 0.38188243 0.8145811
0 0.39370039 0.81433272
1 0.39140171 0.8140291
0 0.40811691 0.81350172
1 0.40836108 0.81606978
0 0.42477289 0.81535083
1 0.42182314 0.81534421
0 0.43422717 0.81777447
1 0.4365007 0.81651658
0 0.44751757 0.81465334
1 0.44939888 0.81525087
0 0.45449257 0.81691718
1 0.4505502 0.8148334
0 0.46797577 0.81614453
1 0.46369025 0.81520003
0 0.47241038 0.81005937
1 0.47417754 0.81775618
0 0.48242557 0.81998301
1 0.48405632 0.81495017
0 0.49553373 0.81394255
1 0.49544451 0.8158682
0 0.50058019 0.81507993
1 0.50474364 0.81376076
0 0.51688826 0.81544185
1 0.51257885 0.81181747
0 0.52021456 0.81681538
1 0.52273542 0.8149215
0 0.53180599 0.81552267
1 0.53121746 0.81845546
0 0.54335827 0.81450927
1 0.54261833 0.81947887
0 0.55496883 0.81527078
1 0.55533457 0.81648016
0 0.56587875 0.8137275
1 0.56907141 0.81036407
1 0.57237709 0.81612527
0 0.58384287 0.81318521
0 0.59672755 0.81511551
0 0.60148764 0.81808811
0 0.61422229 0.81826198
1 0.6107446 0.81906891
0 0.62224317 0.81616521
1 0.62528491 0.81122446
1 0.63576591 0.81410068
0 0.64104986 0.81881607
1 0.64386654 0.81315166
0 0.6520586 0.81080264
1 0.65109515 0.81384575
1 0.66272396 0.81377578
0 0.68431091 0.81640422
1 0.68518537 0.81295472
1 0.69442064 0.81439328
0 0.70353651 0.81099188
1 0.70710939 0.81464636
0 0.71880424 0.8176707
0 0.72287679 0.81401992
0 0.73766983 0.81520486
1 0.73525465 0.81628895
0 0.74878228 0.81687665
1 0.74498463 0.81234467
0 0.75549245 0.81749237
1 0.75499374 0.81789774
0 0.76653826 0.81482941
1 0.76263553 0.81351686
0 0.77567744 0.81508875
1 0.77591133 0.81339747
0 0.78290945 0.81515568
1 0.78993237 0.81724221
0 0.79723901 0.81292683
0 0.80235767 0.81445098
1 0.801741 0.81833118
0 0.82572615 0.81578934
1 0.82455951 0.8156184
0 0.83526123 0.81632835
1 0.83335948 0.8165977
1 0.84749615 0.81446695
0 0.85253024 0.81405306
1 0.85056752 0.81462795
0 0.86919421 0.81007427
1 0.8660388 0.81728101
1 0.87125415 0.81615788
1 0.88591087 0.81475198
1 0.89969242 0.81071812
0 0.90279245 0.81388861
1 0.90732932 0.81424034
1 0.91739392 0.81108129
0 0.92844319 0.81092072
0 0.93429518 0.81325293
1 0.93405867 0.81567943
0 0.94435149 0.81160712
0 0.95913988 0.81803417
1 0.95333332 0.81225604
1 0.96823955 0.81744814
0 0.97411758 0.81241882
1 0.97745752 0.8152054
0 0.98038942 0.81237805
1 0.98319989 0.81567478
0 0.99314189 0.81732053
1 0.99423748 0.81418961
0.0021472871 1 0.81414962
0.013489932 1 0.81494057
0.026659926 1 0.8166948
0.034128964 1 0.81417096
0.04755643 1 0.81829959
0.055421501 1 0.81720477
0.064471483 1 0.81096458
0.079069316 1 0.81538332
0.085770607 1 0.81058067
0.09181577 1 0.81569731
0.10319015 1 0.81463522
0.11429431 1 0.81387979
0.12631412 1 0.81744307
0.14525396 1 0.8114453
0.15398684 1 0.81570661
0.16501807 1 0.81604052
0.17448404 1 0.81428289
0.18004102 1 0.81102574
0.19569075 1 0.81432319
0.2068662 1 0.81856793
0.21254158 1 0.81622869
0.23820964 1 0.81093973
0.24621068 1 0.8172375
0.26246214 1 0.81527334
0.27699503 1 0.81362504
0.28215232 1 0.8163265
0.3001017 1 0.8143971
0.31402358 1 0.81560928
0.32337502 1 0.81535852
0.33421859 1 0.81416011
0.34696752 1 0.81592953
0.35574591 1 0.81124073
0.3672868 1 0.81555367
0.38320738 1 0.81809598
0.39346784 1 0.81263947
0.40262315 1 0.81153083
0.41388759 1 0.8158803
0.42649055 1 0.81280041
0.43410939 1 0.81415099
0.44901609 1 0.81808501
0.47440633 1 0.81120312
0.48324522 1 0.81479406
0.49573418 1 0.81313825
0.51092768 1 0.81902802
0.52625656 1 0.81276143
0.53296268 1 0.81204915
0.54004014 1 0.81351352
0.55432862 1 0.81369698
0.5662533 1 0.81529343
0.57384199 1 0.81315702
0.58754176 1 0.81037509
0.59326011 1 0.81602263
0.60251641 1 0.81568193
0.61326516 1 0.81546676
0.62077641 1 0.8119176
0.63764703 1 0.81026208
0.64126593 1 0.81315702
0.65903282 1 0.81633985
0.66442567 1 0.81493253
0.67983967 1 0.81284732
0.70078582 1 0.81325853
0.71494871 1 0.81519985
0.73967844 1 0.81116551
0.75512993 1 0.8141135
0.765553 1 0.81371945
0.77764636 1 0.81522006
0.7919994 1 0.81460065
0.80350679 1 0.81486398
0.81226403 1 0.81722432
0.83439714 1 0.81310248
0.86589086 1 0.81815994
0.87259585 1 0.81636858
0.88681626 1 0.81386977
0.90236557 1 0.81969839
0.91297442 1 0.81217027
0.92652637 1 0.81792718
0.95343208 1 0.81240261
0.96098369 1 0.81122196
0.98401356 1 0.81517315
0.9979924 1 0.81644225
0 0.0035606623 0.82670957
0.015091121 0 0.82669181
0.020769298 0 0.82541907
0.038046777 0 0.82843995
0.04316457 0 0.82556719
0.051030595 0 0.82593709
0.060760081 0 0.82432866
0.079135239 0 0.82551277
0.095468879 0 0.82330918
0.10448825 0 0.8251825
0.11081529 0 0.82530713
0.12588984 0 0.82097214
0.13019466 0 0.82905978
0.14568251 0 0.82848042
0.15320396 0 0.82664931
0.1675657 0 0.82659143
0.20424895 0 0.82362509
0.22183408 0 0.82496816
0.23381141 0 0.82295787
0.24408099 0 0.82625622
0.25697041 0 0.82876962
0.26390621 0 0.82657409
0.27479964 0 0.82682264
0.28849238 0 0.82605875
0.29367211 0 0.82814342
0.30574009 0 0.82618159
0.33836782 0 0.82359856
0.34653807 0 0.82509607
0.35798052 0 0.82807839
0.365531 0 0.82233667
0.3740477 0 0.82433909
0.38613841 0 0.82473475
0.3963671 0 0.82529116
0.40777051 0 0.82139069
0.41245404 0 0.82413298
0.43705654 0 0.82526493
0.44424933 0 0.82273436
0.4661389 0 0.8203311
0.47294539 0 0.82626188
0.48101592 0 0.82385767
0.49869072 0 0.82539046
0.50851405 0 0.82122344
0.51534915 0 0.82515252
0.52388644 0 0.82550359
0.53361976 0 0.82057285
0.54767865 0 0.82349586
0.55341232 0 0.82474041
0.56211567 0 0.82552105
0.57416689 0 0.82140225
0.58851874 0 0.82206589
0.59609991 0 0.82715797
0.60478836 0 0.82507825
0.61277288 0 0.82770109
0.62429267 0 0.82433146
0.6362654 0 0.82715631
0.64655018 0 0.82636327
0.66357088 0 0.82605255
0.67516339 0 0.82860392
0.68491745 0 0.82449073
0.69742268 0 0.82356125
0.70403492 0 0.82553703
0.71420336 0 0.82495183
0.72430485 0 0.82171553
0.73432386 0 0.82554042
0.74303031 0 0.82653606
0.75512016 0 0.82309282
0.76990002 0 0.82152069
0.78614306 0 0.82585514
0.79540265 0 0.82569563
0.80530465 0 0.82768267
0.81168902 0 0.82334816
0.82100725 0 0.82877803
0.83958209 0 0.82559681
0.84228629 0 0.82096326
0.86533445 0 0.82537103
0.87516838 0 0.82803285
0.88543451 0 0.82544374
0.8973754 0 0.82684302
0.90369987 0 0.82218909
0.92276412 0 0.82924819
0.93867987 0 0.82519013
0.94544619 0 0.82331914
0.95203865 0 0.82646441
0.96429938 0 0.82267147
0.97345626 0 0.82292587
0.98731911 0 0.82558668
1 0.0052636862 0.82793689
0 0.01826038 0.82537085
1 0.01541388 0.82596612
0 0.028576016 0.82123756
1 0.027214319 0.82790124
1 0.035568666 0.82372469
0 0.045256883 0.8263154
1 0.049359679 0.82201606
0 0.055045545 0.82270133
0 0.066030473 0.82871401
1 0.063453257 0.82259583
1 0.074844092 0.82702631
0 0.088763058 0.82796127
1 0.083953694 0.82488567
0 0.096042752 0.82893556
1 0.096160948 0.82556522
0 0.10414773 0.82027185
1 0.1036842 0.82461333
0 0.11163938 0.82264239
1 0.11106473 0.82159281
0 0.1272936 0.82239455
1 0.12507981 0.82610524
0 0.13753507 0.82441097
1 0.13107228 0.82585913
1 0.1490922 0.8246398
0 0.15311714 0.8279779
1 0.15388425 0.82464308
0 0.16528654 0.82674384
1 0.16413437 0.82619625
1 0.17607149 0.82689655
0 0.18318869 0.82292771
1 0.19365783 0.82635468
0 0.20327857 0.82546544
1 0.20522121 0.82509035
0 0.21300936 0.82707727
1 0.21283376 0.82628632
0 0.22356245 0.82505357
0 0.23470062 0.82499701
1 0.23408836 0.8257907
0 0.24598633 0.82372719
1 0.24005616 0.82339561
1 0.25113037 0.82228005
0 0.26344657 0.82802212
1 0.26427567 0.825499
0 0.27544639 0.82100552
1 0.28122884 0.82284141
0 0.30860478 0.82852268
1 0.30142534 0.82586801
0 0.31494188 0.82524836
0 0.32322147 0.82704735
1 0.32229096 0.82074881
0 0.33192849 0.82969964
1 0.33644319 0.82485652
0 0.34217143 0.82312548
1 0.34254205 0.82265413
0 0.35562265 0.82850295
1 0.3510685 0.8203398
0 0.36526698 0.82469296
1 0.369555 0.8238225
0 0.37663805 0.82566571
1 0.37487924 0.82609379
0 0.38974923 0.82946575
1 0.39339575 0.82872027
0 0.40524858 0.82969505
1 0.40330195 0.82933795
0 0.4183228 0.82917845
0 0.42079389 0.8256619
1 0.4266831 0.82781893
1 0.43785697 0.82805425
0 0.44224 0.82765746
1 0.44644153 0.82659066
0 0.45564327 0.82340157
1 0.45084199 0.82442647
0 0.46509054 0.82081008
1 0.46555796 0.82713616
0 0.47616282 0.82485706
1 0.47157228 0.82240069
0 0.48493803 0.82781911
0 0.49224758 0.82956636
1 0.49318004 0.82723451
0 0.50728571 0.82437432
1 0.50784349 0.82981491
1 0.51625681 0.82778871
0 0.52648902 0.82396513
1 0.52781349 0.82554865
0 0.53466409 0.82575911
1 0.53638935 0.82600689
0 0.54378283 0.8235504
1 0.55314994 0.82369632
0 0.56776321 0.82217455
1 0.56180304 0.82670975
0 0.57485676 0.82591057
1 0.5759964 0.82381493
0 0.58212256 0.82231796
1 0.59281218 0.82269305
1 0.61544037 0.82727504
1 0.62575972 0.82462978
0 0.63464552 0.82229674
1 0.63271093 0.82369787
0 0.64715815 0.82574368
1 0.64045525 0.82667941
0 0.65339875 0.82410276
1 0.6510514 0.82383251
0 0.66107827 0.82547772
1 0.66983521 0.82700807
0 0.67487001 0.82525909
1 0.67533445 0.82540113
1 0.68490863 0.820867
0 0.69465983 0.82231116
1 0.69747496 0.82527155
0 0.71815383 0.82042283
1 0.719212 0.8257724
0 0.72090125 0.82474661
1 0.72169507 0.82091254
0 0.73483747 0.82406235
1 0.73685682 0.82824528
1 0.74311423 0.82242596
0 0.75715464 0.82511687
1 0.75756061 0.82277983
0 0.76923352 0.82150245
1 0.76688415 0.82802242
0 0.77122581 0.82769328
1 0.77102578 0.82409763
1 0.78826904 0.8244105
0 0.7984587 0.82152325
0 0.80028403 0.82766819
1 0.80359679 0.82536012
0 0.81303096 0.82536876
0 0.82583845 0.82810366
1 0.82577461 0.82521987
0 0.83296317 0.82693416
1 0.83285546 0.82090795
0 0.84304047 0.82318163
1 0.84774399 0.82265753
1 0.85519505 0.82645619
0 0.86335582 0.82270616
0 0.87194693 0.82048243
1 0.8883931 0.82663316
0 0.89731163 0.82356894
0 0.90424263 0.82296455
1 0.90290427 0.82622796
0 0.91126609 0.82856947
1 0.91120237 0.82244813
0 0.92576826 0.82146633
1 0.92769146 0.82547343
0 0.93305838 0.8248111
0 0.94344258 0.82022762
1 0.94737858 0.82680571
0 0.95787287 0.82777023
1 0.95861995 0.82739043
0 0.96591771 0.82356894
0 0.97688514 0.82750463
1 0.97087121 0.82356894
1 0.98153067 0.82821381
1 0.99587363 0.8278597
0.0020852387 1 0.82638288
0.0163425 1 0.82403135
0.024478614 1 0.82400107
0.0366216 1 0.82184398
0.043184042 1 0.82588446
0.064174674 1 0.82670045
0.073189199 1 0.82077402
0.082122684 1 0.82818484
0.095155381 1 0.82676977
0.10222512 1 0.82308817
0.12451891 1 0.82692522
0.13685131 1 0.82437444
0.14526272 1 0.82472301
0.15530705 1 0.8274914
0.16892323 1 0.82448471
0.17385566 1 0.82610691
0.18406707 1 0.8213225
0.19781592 1 0.82416141
0.20439903 1 0.82660586
0.23300683 1 0.82703716
0.24981248 1 0.82537502
0.25273222 1 0.82754326
0.27504051 1 0.82501638
0.28512114 1 0.82549524
0.29333195 1 0.82624906
0.30530909 1 0.82447511
0.31747404 1 0.82203126
0.32255352 1 0.82406139
0.33315718 1 0.82711041
0.34453559 1 0.8226282
0.35426575 1 0.82849222
0.36565769 1 0.82763654
0.37419724 1 0.82706451
0.38767642 1 0.82404286
0.39769503 1 0.82673657
0.40739956 1 0.82952416
0.42278606 1 0.82340664
0.43767413 1 0.82512534
0.44473711 1 0.82628286
0.45322552 1 0.82457238
0.46579888 1 0.82330686
0.47249046 1 0.82420546
0.48699611 1 0.82333893
0.49510705 1 0.82267869
0.50517553 1 0.82580394
0.51561683 1 0.82014507
0.52614915 1 0.82609218
0.53775501 1 0.82406688
0.54143232 1 0.82034969
0.55748731 1 0.82448715
0.57088196 1 0.82801443
0.60320544 1 0.82916522
0.62963545 1 0.82340944
0.65289748 1 0.82192922
0.66477811 1 0.82124197
0.67202902 1 0.82062864
0.69547886 1 0.82752717
0.70555925 1 0.82853025
0.71634305 1 0.82698178
0.72457355 1 0.82837367
0.74760276 1 0.82442188
0.75303203 1 0.8260808
0.78290272 1 0.82911938
0.82035702 1 0.82548594
0.8307761 1 0.82259727
0.84651649 1 0.82750583
0.85864693 1 0.82795066
0.86473536 1 0.82636881
0.87038225 1 0.82922983
0.8846454 1 0.82593393
0.89463389 1 0.82467002
0.90409851 1 0.82386309
0.92466962 1 0.82263064
0.93973899 1 0.82620651
0.94574249 1 0.82546544
0.96714413 1 0.82585448
0.97590625 1 0.82757205
0.98528403 1 0.82226908
0.99020326 1 0.82736921
0.0021474585 0.0032809228 0.83295417
0.023018539 0 0.83351326
0.034038085 0 0.83428359
0.044235975 0 0.835778
0.059688449 0 0.83746499
0.067392975 0 0.83505762
0.075633883 0 0.83592647
0.085196346 0 0.83352232
0.09233579 0 0.83719677
0.105964 0 0.83522552
0.1159547 0 0.83175731
0.13489166 0 0.8338502
0.14852709 0 0.8315165
0.15550947 0 0.83674031
0.17587417 0 0.83046174
0.18705247 0 0.83464509
0.19577548 0 0.83543408
0.2040299 0 0.83674574
0.21009603 0 0.83714134
0.22749317 0 0.83504128
0.2301424 0 0.83579147
0.24208039 0 0.83572865
0.25211215 0 0.8308934
0.27750295 0 0.83385402
0.28505462 0 0.83587301
0.2910924 0 0.83667642
0.30618304 0 0.8319304
0.31914485 0 0.8344028
0.32793891 0 0.83759689
0.33542728 0 0.83596677
0.34435961 0 0.83491468
0.35854554 0 0.83429307
0.36464772 0 0.83481306
0.37202495 0 0.8353985
0.3858659 0 0.83870745
0.39791816 0 0.83389062
0.40433702 0 0.83430094
0.41233474 0 0.83024126
0.42108861 0 0.83339638
0.43122619 0 0.83332038
0.45228517 0 0.83968931
0.4647375 0 0.83277363
0.47583544 0 0.83553457
0.48935011 0 0.83751303
0.49358213 0 0.83750546
0.50343335 0 0.83483708
0.5275045 0 0.83160019
0.53226537 0 0.83161849
0.54714906 0 0.83772433
0.55465871 0 0.83264542
0.5660814 0 0.83752406
0.57364929 0 0.8365283
0.58501261 0 0.83669925
0.5952493 0 0.83740556
0.61559564 0 0.83529782
0.63653547 0 0.83732212
0.64635992 0 0.83062714
0.65424234 0 0.83779711
0.6648559 0 0.83565432
0.68478131 0 0.83495599
0.6923697 0 0.83324736
0.70317209 0 0.83453077
0.72497392 0 0.83539879
0.73536605 0 0.83420163
0.74775308 0 0.83432078
0.75203264 0 0.83410096
0.76188654 0 0.83040667
0.78558403 0 0.83467549
0.80727768 0 0.8362518
0.81490129 0 0.83360016
0.82401019 0 0.83503431
0.83210707 0 0.83255374
0.84909397 0 0.83542627
0.85386586 0 0.83614719
0.86066669 0 0.83635724
0.87069744 0 0.83635724
0.88173163 0 0.83901668
0.89586234 0 0.83204341
0.90908545 0 0.83965296
0.91113186 0 0.83692086
0.92196262 0 0.83565438
0.93491054 0 0.83674026
0.94550228 0 0.83292025
0.96297854 0 0.83548105
0.97494107 0 0.83459914
0.98823977 0 0.83591926
0.99381179 0 0.83579892
1 0.0047960579 0.83372301
0 0.01637725 0.83596539
1 0.010785103 0.83160889
0 0.022172689 0.83008581
0 0.036676686 0.83538014
1 0.030525744 0.83313495
0 0.044472098 0.83419102
1 0.048637629 0.8353523
0 0.055897057 0.8366431
1 0.057539385 0.83342904
1 0.063542247 0.83504534
1 0.070919991 0.83824456
0 0.086818993 0.8353616
0 0.095764361 0.83549422
1 0.090405524 0.83086675
0 0.1059982 0.83495909
1 0.1074185 0.83119708
0 0.1126706 0.83844584
1 0.1152611 0.83777189
0 0.12009603 0.8342393
1 0.12601203 0.83719414
0 0.13526452 0.83718306
1 0.13510111 0.83490014
0 0.14355114 0.83649075
1 0.14355093 0.83851349
0 0.15545508 0.83769155
1 0.15348232 0.83386594
0 0.16501726 0.83430254
1 0.16187495 0.83494806
0 0.17349803 0.83209157
1 0.17448419 0.83341146
0 0.18720756 0.83735949
1 0.18241018 0.83496958
0 0.19366388 0.83495408
1 0.19837843 0.83616972
0 0.20591661 0.83253372
1 0.20661908 0.83336419
0 0.21310633 0.83836114
0 0.22749031 0.83179146
1 0.22009879 0.83606082
0 0.23397648 0.83584541
1 0.23004258 0.83476746
0 0.24957287 0.83760744
1 0.24508251 0.83733833
0 0.25302738 0.83427346
1 0.25551373 0.83562881
0 0.26036626 0.83416474
1 0.27611575 0.83460331
0 0.28091043 0.83398706
1 0.28597298 0.83305842
0 0.29252648 0.83273935
1 0.29244226 0.83621478
0 0.30549064 0.83425546
1 0.30438036 0.8304894
0 0.31573173 0.83588791
1 0.31696451 0.83497375
0 0.325086 0.8310532
1 0.32742175 0.83156776
0 0.33828539 0.83083546
1 0.34470403 0.8381958
0 0.35248089 0.83183634
1 0.35756731 0.83033407
1 0.36531046 0.83755898
0 0.3764227 0.83392638
1 0.37491721 0.83586043
0 0.38335663 0.83697569
1 0.38225839 0.83581752
0 0.3907001 0.8375783
1 0.39709467 0.83265918
0 0.4042342 0.83443123
1 0.40763021 0.83331871
0 0.41169751 0.83059013
1 0.41419274 0.83713675
0 0.4234606 0.83475178
1 0.42746311 0.83716607
1 0.43298793 0.83421195
0 0.4425706 0.83696991
1 0.44505274 0.83435088
0 0.45746702 0.83049154
1 0.45131439 0.8368578
0 0.4681488 0.8356263
1 0.46360487 0.83380067
0 0.47936851 0.83879614
0 0.48449337 0.83465654
1 0.4818753 0.83629274
0 0.49321014 0.8331219
1 0.4978987 0.83875692
0 0.50795239 0.83120286
1 0.50274962 0.83580619
0 0.51720268 0.83403838
1 0.51676053 0.83726293
0 0.52183926 0.83722281
1 0.52211416 0.83390605
0 0.53432661 0.83832717
1 0.53965878 0.83023798
0 0.55726486 0.83532548
1 0.55496168 0.83581328
0 0.56794208 0.8368057
1 0.56572258 0.83597016
0 0.57790804 0.83635694
1 0.57357681 0.83141428
0 0.58307582 0.83703399
1 0.58214378 0.83259821
0 0.59344959 0.8302111
1 0.59283155 0.83664024
0 0.60557884 0.83682895
0 0.61501247 0.83686602
1 0.61563784 0.83231461
0 0.62687647 0.8355515
0 0.63485444 0.83380795
1 0.63227415 0.83548677
0 0.64826393 0.83032554
1 0.64601529 0.83417767
0 0.65403134 0.83647776
0 0.66872787 0.83167475
0 0.67266655 0.83215773
1 0.67959225 0.83832943
0 0.68911552 0.83240438
1 0.6847291 0.83635128
0 0.69406456 0.83841717
1 0.69853467 0.83111572
0 0.70089835 0.83137965
0 0.71805966 0.83519709
1 0.71610403 0.83570802
0 0.72714907 0.83772784
0 0.73842704 0.83654881
1 0.73163182 0.83157372
0 0.74932951 0.83600235
1 0.74677444 0.83390051
0 0.75196326 0.83690989
0 0.76614642 0.83269566
1 0.7650398 0.83533859
0 0.77002835 0.83608341
1 0.77902913 0.83429205
1 0.78647423 0.8344602
0 0.79000497 0.83232057
0 0.80544859 0.83554441
1 0.80647707 0.83308905
0 0.814098 0.83527726
1 0.82483172 0.83345097
1 0.83519024 0.83644724
0 0.84198284 0.83359855
1 0.8443523 0.83662069
0 0.85475856 0.83497983
1 0.85446298 0.83518666
0 0.86789161 0.8359167
1 0.86544442 0.83408779
0 0.87582213 0.83417982
1 0.88852012 0.83941561
0 0.8923955 0.83696377
1 0.89646673 0.835567
0 0.90844697 0.83524942
1 0.90147853 0.83752632
0 0.91285282 0.83420539
1 0.91607469 0.83574677
0 0.92453653 0.83729362
1 0.92599845 0.83062905
0 0.93543005 0.83894122
1 0.93442923 0.83703566
0 0.94746441 0.83825558
1 0.94394755 0.83737499
0 0.9552151 0.8337431
0 0.96342498 0.83130932
1 0.96649849 0.8367303
1 0.97642267 0.83121669
0 0.98653066 0.83903599
1 0.98706436 0.8344515
1 0.99462467 0.83545434
0.0033226609 1 0.83604044
0.013024271 1 0.83667636
0.024138838 1 0.83555228
0.037079692 1 0.8346951
0.040047526 1 0.83784914
0.09084183 1 0.83455104
0.10698888 1 0.83669949
0.1104207 1 0.83642387
0.13436228 1 0.83264267
0.14741677 1 0.83572304
0.15806961 1 0.83726525
0.16780578 1 0.83757782
0.17419714 1 0.83551759
0.18619907 1 0.83510649
0.20169696 1 0.83726895
0.21123528 1 0.83205879
0.22450587 1 0.83756936
0.23884691 1 0.83224213
0.24219295 1 0.83082914
0.26781568 1 0.83401871
0.2786243 1 0.838853
0.28662896 1 0.83335978
0.29353765 1 0.8367486
0.30649549 1 0.83861566
0.32657495 1 0.83641356
0.33626932 1 0.83457255
0.34477618 1 0.83983469
0.35681787 1 0.83339447
0.36585969 1 0.83749664
0.38417858 1 0.83456397
0.39714655 1 0.83467704
0.40721968 1 0.83728719
0.41699252 1 0.83368927
0.42499515 1 0.83912569
0.4557794 1 0.83550936
0.46943402 1 0.8374964
0.47462782 1 0.83748764
0.48412323 1 0.83018613
0.495204 1 0.83167356
0.50677049 1 0.83394122
0.51485479 1 0.83501023
0.52622241 1 0.83493298
0.53713554 1 0.83603913
0.54587138 1 0.83403695
0.55678862 1 0.83477491
0.56313372 1 0.83324993
0.57387847 1 0.83382684
0.58838767 1 0.8344301
0.59822929 1 0.83663082
0.60707259 1 0.8346588
0.61522496 1 0.83422893
0.62113458 1 0.83555406
0.63815761 1 0.83229625
0.64776593 1 0.83582669
0.65477765 1 0.83496845
0.66336817 1 0.83979833
0.67846316 1 0.83564991
0.69655281 1 0.83315474
0.70336002 1 0.8337006
0.71688128 1 0.83378959
0.7213707 1 0.83408445
0.73319811 1 0.83088428
0.74192965 1 0.83694082
0.75998688 1 0.8356089
0.76493835 1 0.83398062
0.77218729 1 0.83979833
0.78240281 1 0.83791542
0.79096717 1 0.83176529
0.80157828 1 0.83797938
0.81929976 1 0.83745861
0.8263582 1 0.83473372
0.84801841 1 0.83623677
0.85511351 1 0.83484787
0.8785345 1 0.83267993
0.88608187 1 0.83602875
0.89441437 1 0.83149004
0.90781808 1 0.83224213
0.91480547 1 0.8365761
0.9270646 1 0.83013099
0.95328981 1 0.83452797
0.97825408 1 0.83341473
0.99260557 1 0.83264542
0.0051570735 0.0030607183 0.84815282
0.023495823 0 0.84525502
0.036755621 0 0.84717989
0.04147917 0 0.84853429
0.06615293 0 0.84427547
0.085523725 0 0.84515953
0.10734737 0 0.84492368
0.11543512 0 0.84525853
0.12484306 0 0.84246677
0.13451719 0 0.84840858
0.15715115 0 0.84878057
0.16439584 0 0.84707969
0.17282641 0 0.8479532
0.18098561 0 0.84378618
0.19566029 0 0.84821373
0.20735271 0 0.84616703
0.2150209 0 0.8430779
0.22450435 0 0.84317279
0.23392141 0 0.84838498
0.24857581 0 0.84669262
0.25586867 0 0.8486008
0.2637614 0 0.84495503
0.27020037 0 0.84955323
0.28381714 0 0.84430838
0.29563355 0 0.84967899
0.30601323 0 0.84946346
0.31554332 0 0.84431601
0.32252479 0 0.84447306
0.33454433 0 0.84325963
0.34615892 0 0.84590805
0.35045129 0 0.84710705
0.36577982 0 0.84587175
0.42343718 0 0.84376806
0.43345147 0 0.84338826
0.47566238 0 0.84346455
0.48268402 0 0.84535551
0.49272969 0 0.84372401
0.50454968 0 0.84272957
0.52518821 0 0.84351486
0.547988 0 0.8442508
0.55787671 0 0.84519553
0.57837439 0 0.84407544
0.58379084 0 0.84457302
0.59442264 0 0.84574133
0.61756343 0 0.84732199
0.62142265 0 0.8432616
0.64503193 0 0.84378618
0.65765977 0 0.84802431
0.66154057 0 0.84593874
0.67031008 0 0.84479827
0.69396615 0 0.84447306
0.70744932 0 0.84431046
0.71417612 0 0.84476215
0.72853374 0 0.84340632
0.73513722 0 0.84822309
0.74181998 0 0.84799755
0.76579267 0 0.84159517
0.78678393 0 0.84659249
0.79600477 0 0.84321529
0.81220728 0 0.84888846
0.82879716 0 0.84360534
0.83892244 0 0.84505111
0.84796619 0 0.84310246
0.85372114 0 0.8432163
0.86095059 0 0.84753925
0.87339944 0 0.84372407
0.90392703 0 0.84219331
0.91534722 0 0.84134132
0.92568028 0 0.84193945
0.93577945 0 0.84362268
0.95346725 0 0.84540373
0.96774179 0 0.84025246
0.97468412 0 0.8463074
0.9856019 0 0.84531826
1 0.0060483813 0.84391117
0 0.014091611 0.84294307
1 0.018232644 0.84381247
1 0.024934709 0.84583265
0 0.035318226 0.84132254
1 0.034595013 0.84288013
0 0.047997117 0.84696478
1 0.045046866 0.84662509
0 0.05157733 0.84538347
1 0.057149649 0.84682947
0 0.064406216 0.84102213
1 0.069984317 0.8417713
0 0.075405814 0.84767824
1 0.073156983 0.84678245
1 0.087565757 0.8427754
1 0.096937835 0.84365624
0 0.10212314 0.84074521
1 0.10422507 0.84688568
0 0.11585876 0.84187317
1 0.11392191 0.84562004
0 0.12337652 0.84376222
1 0.12599842 0.84589106
0 0.13337576 0.84118414
1 0.13172227 0.84411383
0 0.14627923 0.84334165
1 0.14741677 0.84552652
0 0.15590644 0.84819812
1 0.15577996 0.84268779
0 0.16779697 0.84680021
0 0.17388582 0.84210348
1 0.17690343 0.84791565
0 0.1841827 0.84775627
1 0.18625224 0.84483862
0 0.19560869 0.84811413
0 0.20323385 0.84521365
1 0.20109785 0.84140444
0 0.21167266 0.84439391
1 0.21882814 0.84275484
0 0.22475576 0.84583652
1 0.22240615 0.84518546
0 0.23647052 0.84066731
1 0.23045886 0.84641117
0 0.24382019 0.84506249
1 0.24424548 0.8434847
0 0.25575942 0.84775865
1 0.25484943 0.84313935
1 0.26631537 0.84491044
0 0.27537927 0.84644324
1 0.2716127 0.84406626
0 0.28874144 0.84740639
1 0.28054976 0.84494758
0 0.29780966 0.84190834
1 0.29888529 0.84692055
1 0.30013776 0.84385091
0 0.31534883 0.84622633
1 0.31336698 0.84496337
0 0.32351989 0.84633946
1 0.3221477 0.84402603
0 0.3339659 0.84532261
1 0.34593928 0.84949899
0 0.35839915 0.84796047
1 0.3582803 0.8414501
0 0.36092508 0.8422401
1 0.36750102 0.84450036
1 0.37453184 0.8418895
0 0.38604403 0.84529847
1 0.38508332 0.84485549
0 0.39009941 0.84134543
1 0.39623475 0.84237027
0 0.40472212 0.84580213
1 0.40366006 0.84343529
0 0.41786736 0.84373295
1 0.41125786 0.84129924
1 0.42431527 0.84472829
0 0.43497407 0.84727532
1 0.43379581 0.8462671
0 0.4447566 0.84601974
1 0.44682878 0.84839416
0 0.45553109 0.84362698
1 0.45488563 0.84844905
0 0.46113569 0.84827995
1 0.46555686 0.84376973
0 0.47629684 0.84289682
1 0.47004408 0.84422195
0 0.48388365 0.84434509
1 0.484523 0.84563965
0 0.49594995 0.84300023
1 0.49614269 0.84676504
0 0.50506574 0.84516418
1 0.50460237 0.84485215
1 0.51145321 0.84336329
0 0.52897686 0.84855044
1 0.52337348 0.84232694
1 0.53170598 0.84079605
1 0.546673 0.84639621
0 0.55537331 0.84744453
1 0.55603701 0.8426801
0 0.56512368 0.84088957
0 0.57592028 0.84454513
0 0.58454138 0.84129822
1 0.58756214 0.8451848
0 0.59279424 0.84437662
0 0.60419554 0.8480618
1 0.6130867 0.84462619
0 0.62406403 0.84442341
0 0.63867712 0.84565926
1 0.63581681 0.84593791
0 0.64625472 0.84832704
1 0.64878529 0.84814763
0 0.65065801 0.84111804
1 0.65536565 0.84252691
0 0.66621268 0.84397221
1 0.66730309 0.84850556
1 0.67287737 0.84364557
0 0.68287504 0.84483546
1 0.68275094 0.84479308
0 0.69351494 0.84307235
1 0.69671828 0.84537351
0 0.70825779 0.84713095
1 0.70479339 0.84386373
1 0.71644616 0.84674293
0 0.72378641 0.84075236
0 0.74674922 0.84677202
0 0.75597167 0.8423816
1 0.75612199 0.84492743
1 0.76791483 0.84662461
0 0.77376544 0.84194404
1 0.77635229 0.8477301
1 0.78648216 0.8471902
0 0.79508007 0.84230769
1 0.79466707 0.84597397
1 0.81711406 0.84672809
0 0.8239221 0.8436442
1 0.82048243 0.84068143
0 0.83597928 0.84452963
1 0.83762026 0.84953314
0 0.84646946 0.8419553
1 0.84706235 0.84084916
0 0.85475034 0.84383565
0 0.86587524 0.84345758
1 0.86796284 0.84561664
1 0.87406361 0.8465811
0 0.88449037 0.84036863
1 0.88316292 0.84414113
0 0.89525193 0.84556967
1 0.89426535 0.84625411
0 0.90285683 0.84660816
1 0.90268594 0.84472966
0 0.91567165 0.84515268
1 0.91413903 0.84443557
0 0.9248904 0.84229195
1 0.92706203 0.84249908
0 0.93456423 0.84113514
1 0.93529409 0.84442586
0 0.94543725 0.84376544
1 0.94147652 0.84673876
0 0.95068479 0.84962207
1 0.95787609 0.84219527
0 0.96557379 0.84720618
1 0.96394134 0.84647179
0 0.97287536 0.84411538
1 0.97678858 0.84084725
0 0.98689163 0.84332156
1 0.98380685 0.84830868
0 0.99522996 0.84379947
1 0.99848253 0.84931797
0.0016493201 1 0.84677613
0.019539058 1 0.84363085
0.033866864 1 0.84404874
0.046225518 1 0.84238231
0.050387502 1 0.84467638
0.067821085 1 0.84717673
0.076703191 1 0.84506547
0.081991136 1 0.84310877
0.095607162 1 0.84518147
0.14488825 1 0.84620196
0.1551775 1 0.84664422
0.16827789 1 0.8429901
0.1742688 1 0.84161252
0.18336602 1 0.84521359
0.19529293 1 0.84753925
0.22516012 1 0.8489241
0.23103413 1 0.84845692
0.25620165 1 0.84233117
0.2657733 1 0.84494191
0.27067688 1 0.84548432
0.29876047 1 0.84667224
0.30051717 1 0.84412968
0.31509334 1 0.84674668
0.32110441 1 0.84454834
0.33513829 1 0.84739786
0.34733564 1 0.84473825
0.35064894 1 0.84651238
0.37415016 1 0.84221143
0.3850511 1 0.84401631
0.39674345 1 0.84656543
0.40167153 1 0.84665662
0.41376111 1 0.84707099
0.42513418 1 0.84188521
0.43109241 1 0.84056109
0.44550189 1 0.84701693
0.45532361 1 0.84664565
0.46434355 1 0.84765226
0.47409996 1 0.84487629
0.48177284 1 0.8413232
0.49123886 1 0.84074259
0.50575376 1 0.84385419
0.51453376 1 0.8493197
0.52798706 1 0.84604353
0.53099948 1 0.84825742
0.55796009 1 0.84507596
0.56477666 1 0.8441757
0.57365566 1 0.84347266
0.58392239 1 0.84899628
0.59965307 1 0.84717911
0.60373807 1 0.84613746
0.61650831 1 0.84763694
0.62381059 1 0.84860945
0.63187242 1 0.84447807
0.64747763 1 0.84554744
0.65505576 1 0.84175837
0.66910815 1 0.84613281
0.67014098 1 0.84076077
0.69293499 1 0.84216809
0.70633173 1 0.84308058
0.71384323 1 0.84375596
0.73866832 1 0.84559262
0.74274969 1 0.84695244
0.75295663 1 0.84890616
0.76394027 1 0.84005266
0.78313285 1 0.84254766
0.7953223 1 0.84411156
0.80617732 1 0.84310323
0.81220657 1 0.8414048
0.8246097 1 0.8480432
0.83352923 1 0.84579229
0.84571934 1 0.84537143
0.86819917 1 0.8470062
0.88534123 1 0.84487051
0.89330918 1 0.84059739
0.90667838 1 0.84663635
0.91244304 1 0.84681773
0.92395854 1 0.84455228
0.93175411 1 0.84324348
0.95440274 1 0.84034324
0.97703236 1 0.8447696
0.98156428 1 0.84019798
0.0015899738 0.0012331605 0.85420376
0.012314479 0 0.85641068
0.022016644 0 0.85809326
0.033141971 0 0.85110533
0.046413463 0 0.85411024
0.058374941 0 0.85969841
0.064977616 0 0.85238671
0.078290522 0 0.85926455
0.083521187 0 0.85199958
0.091320962 0 0.85695767
0.10108709 0 0.8539508
0.11635098 0 0.85136795
0.12743634 0 0.85763681
0.14162843 0 0.85604125
0.15067825 0 0.85939276
0.16031691 0 0.85994297
0.17033665 0 0.85761541
0.18413141 0 0.85487103
0.1920258 0 0.85147291
0.20296855 0 0.85614264
0.21619648 0 0.85771918
0.22536069 0 0.85509443
0.23826057 0 0.85274428
0.24948236 0 0.85037905
0.25788325 0 0.85837048
0.26804918 0 0.85624099
0.27950272 0 0.85626096
0.28361872 0 0.85476393
0.29529408 0 0.85043287
0.30719537 0 0.85458338
0.31980765 0 0.8509351
0.32355812 0 0.85795319
0.33836728 0 0.85862893
0.3647266 0 0.85644031
0.37312156 0 0.85965902
0.38423085 0 0.85686779
0.40452051 0 0.85159832
0.41474596 0 0.85256535
0.42418325 0 0.85722387
0.43378028 0 0.85549265
0.44675836 0 0.85415673
0.47271973 0 0.85876191
0.48116833 0 0.85522795
0.4916001 0 0.85497808
0.50584757 0 0.85564852
0.5150404 0 0.85884219
0.52700746 0 0.85443038
0.53397673 0 0.85370505
0.54527652 0 0.85910863
0.56619811 0 0.85576206
0.57737714 0 0.85437083
0.58240736 0 0.85866445
0.5927639 0 0.85518217
0.60203558 0 0.85711467
0.61701983 0 0.85612631
0.62341058 0 0.85718828
0.63188636 0 0.85258323
0.64641273 0 0.8539781
0.65863431 0 0.85676092
0.66588479 0 0.85663253
0.674106 0 0.8578366
0.68414688 0 0.85233265
0.6957593 0 0.85208195
0.70542938 0 0.85784668
0.7149024 0 0.85845119
0.72812116 0 0.85893983
0.74504864 0 0.85533994
0.75673354 0 0.85493994
0.76253134 0 0.8542338
0.77790022 0 0.85974777
0.78320038 0 0.85181296
0.79482198 0 0.85542333
0.82518095 0 0.85436201
0.83420062 0 0.85284424
0.84414184 0 0.85402703
0.85778034 0 0.85862792
0.86788851 0 0.85631317
0.87995362 0 0.85236847
0.88219607 0 0.85345978
0.9045198 0 0.85670751
0.91387737 0 0.85750866
0.93243891 0 0.85708147
0.9543075 0 0.85802448
0.96682262 0 0.85463345
0.97323751 0 0.85306633
0.98087603 0 0.85608387
0.996822 0 0.85461307
1 0.0056236982 0.85622334
0 0.015950561 0.85822457
1 0.014339849 0.85394102
0 0.02722609 0.85444611
0 0.034436941 0.85979772
0 0.044563949 0.85693711
1 0.048381031 0.85642076
0 0.054833531 0.85312515
0 0.061223775 0.85798538
0 0.075064868 0.85420656
1 0.076780528 0.85453057
1 0.097269386 0.85629857
0 0.10765487 0.85187089
1 0.10534281 0.85183072
0 0.11992264 0.85915756
1 0.11387536 0.8551234
1 0.12659964 0.85399866
1 0.1346985 0.85723078
1 0.1479001 0.85409141
0 0.15014148 0.85652411
1 0.15303707 0.85734898
0 0.1620571 0.85320485
1 0.16884029 0.8541767
0 0.17834973 0.85678828
0 0.18581158 0.85442108
1 0.18560594 0.85415918
1 0.19328284 0.85765815
0 0.2049747 0.85531217
1 0.20360483 0.85545307
0 0.21402065 0.85627741
1 0.21643969 0.85861719
0 0.22358918 0.85996741
1 0.22360985 0.85639572
0 0.23290163 0.85668468
1 0.23445475 0.85143733
0 0.24473108 0.8532567
1 0.24620275 0.85489875
0 0.25993311 0.85685599
0 0.26596466 0.85766315
1 0.26413053 0.85313153
0 0.275527 0.85371399
1 0.27813849 0.85238838
0 0.28418189 0.85559565
1 0.28122878 0.85242027
0 0.2989614 0.85368645
1 0.2975418 0.85512501
0 0.30539444 0.8554244
1 0.30554128 0.85420603
1 0.31706583 0.85160756
0 0.32567668 0.85965317
0 0.336961 0.85345304
1 0.33344927 0.85229796
0 0.34818274 0.85966277
1 0.34963578 0.85642278
0 0.35503176 0.85664499
1 0.35973239 0.85660022
0 0.36256757 0.8532446
0 0.37520781 0.8536123
1 0.3768723 0.85641766
0 0.38389045 0.85528862
0 0.39396667 0.85473663
0 0.40604442 0.85843527
1 0.40636405 0.85552418
1 0.41659299 0.85647386
0 0.42216539 0.85185581
1 0.42391092 0.85850936
0 0.43019605 0.85494065
1 0.43417332 0.85579693
1 0.44948202 0.85892642
1 0.45565644 0.8512063
0 0.46483898 0.85478085
1 0.46380877 0.85521603
0 0.47490034 0.85479498
1 0.47296017 0.85641831
1 0.48809233 0.85563582
1 0.49521318 0.85549259
0 0.50930285 0.85207808
1 0.50381875 0.85443783
0 0.52539468 0.85123682
1 0.52211064 0.85416675
0 0.5351727 0.85703951
1 0.53179008 0.85418606
0 0.5440551 0.85515177
1 0.5465827 0.85344774
0 0.55185246 0.8517344
1 0.5512405 0.85413867
0 0.56438744 0.85639989
1 0.56616926 0.85694253
0 0.57448763 0.8588984
1 0.57284129 0.85726619
0 0.58633929 0.85606843
1 0.58828437 0.85474372
0 0.59403187 0.85507107
1 0.59195113 0.85132766
0 0.60381377 0.8519786
1 0.60444695 0.85450691
0 0.61862516 0.8546567
1 0.61359447 0.85423708
0 0.62537301 0.8543613
1 0.62402475 0.85128736
1 0.63530111 0.8514443
0 0.64109236 0.85560668
0 0.65244883 0.85254514
0 0.66452515 0.8517642
1 0.66819316 0.85566115
0 0.67592245 0.85919011
0 0.68894494 0.85354066
0 0.69485068 0.85668427
1 0.69345635 0.85604274
0 0.70239276 0.85296851
1 0.70342666 0.85319024
0 0.71688449 0.85735309
1 0.71497756 0.85147834
0 0.72494894 0.85053837
1 0.72650671 0.85015792
0 0.73491436 0.85854691
1 0.7351228 0.85368216
1 0.74373317 0.85029149
0 0.75759244 0.85389042
1 0.75276184 0.85900456
0 0.76753139 0.85574585
1 0.76495355 0.8560974
1 0.77736014 0.85381526
0 0.78512073 0.85360825
1 0.78576076 0.85774481
0 0.79322684 0.85051095
1 0.79560196 0.85526586
0 0.80983341 0.85128725
1 0.80500948 0.85389882
0 0.81598949 0.855609
1 0.81445169 0.85766816
0 0.8251608 0.85576713
1 0.82468867 0.85368735
0 0.83752632 0.85779089
1 0.83304304 0.85494035
0 0.84255868 0.85439211
1 0.84558785 0.85762501
0 0.85362762 0.85197425
1 0.85525918 0.85683465
0 0.86189848 0.8548916
1 0.86931616 0.85894167
0 0.87101781 0.85436445
1 0.87836254 0.85064018
0 0.88525575 0.8523953
1 0.88740045 0.85592651
0 0.89422137 0.85690254
1 0.90893495 0.85711455
0 0.91403067 0.85802686
1 0.91453803 0.85598969
0 0.93564332 0.85394609
1 0.93447685 0.85161412
1 0.94641447 0.85602432
0 0.95582944 0.85840595
1 0.9574939 0.85578585
1 0.9681772 0.85605061
1 0.97558725 0.85483718
0 0.98312557 0.85840178
1 0.98425114 0.85512173
0 0.99682134 0.85834789
1 0.99389666 0.85064018
0.003947278 1 0.85316902
0.021673441 1 0.8585735
0.038078487 1 0.85814977
0.044148624 1 0.85257006
0.055018544 1 0.85928762
0.062630236 1 0.85690039
0.077645123 1 0.85964108
0.097681642 1 0.85222936
0.11458063 1 0.85592872
0.12618408 1 0.85256547
0.13692209 1 0.85508466
0.14381921 1 0.85184371
0.15730917 1 0.85617304
0.16199163 1 0.85399175
0.18419041 1 0.85444933
0.19537258 1 0.85350192
0.2035398 1 0.85425341
0.21592209 1 0.85542417
0.22581005 1 0.85559291
0.24577519 1 0.85387087
0.25717086 1 0.85462731
0.27526426 1 0.85614443
0.28467697 1 0.85182148
0.29210526 1 0.8523038
0.30104157 1 0.85247588
0.31475657 1 0.85292321
0.33925202 1 0.85802448
0.35519898 1 0.85502017
0.36551669 1 0.85491854
0.37308726 1 0.85307032
0.38526964 1 0.85855788
0.40949857 1 0.85731286
0.4241105 1 0.85459566
0.43551236 1 0.85424203
0.44389418 1 0.85283321
0.45774853 1 0.85028934
0.46391088 1 0.85675931
0.48427966 1 0.85791165
0.51424462 1 0.85488147
0.5368669 1 0.85392445
0.54174423 1 0.85014576
0.55403817 1 0.85431743
0.5628475 1 0.85063022
0.5751698 1 0.85524577
0.58099371 1 0.8580541
0.59616196 1 0.85973006
0.60721755 1 0.85457599
0.61376059 1 0.85144544
0.6255455 1 0.85861993
0.63965487 1 0.85446036
0.6486277 1 0.85676903
0.65012115 1 0.8563512
0.67375565 1 0.85564613
0.681903 1 0.85061228
0.69107568 1 0.85569167
0.70047891 1 0.85583431
0.71503168 1 0.85364038
0.72107559 1 0.85045081
0.73681766 1 0.85671884
0.74491739 1 0.85433906
0.75440103 1 0.85333157
0.76674491 1 0.85608536
0.78639841 1 0.85821939
0.79902351 1 0.85338825
0.80447865 1 0.85770321
0.810296 1 0.85658282
0.82630855 1 0.8543759
0.83487159 1 0.85479897
0.84456307 1 0.85283262
0.85510349 1 0.85303056
0.86494654 1 0.85931277
0.87479019 1 0.85520732
0.88318288 1 0.85333419
0.90180546 1 0.85757983
0.91385221 1 0.85116804
0.92742938 1 0.85326988
0.9340651 1 0.85563505
0.95588893 1 0.85025346
0.9696359 1 0.8592152
0.97742122 1 0.85041493
0.98829931 1 0.85965902
0.99692965 1 0.85261905
0.0018697778 0.0013965567 0.8668862
0.016741693 0 0.86266154
0.021564305 0 0.86762714
0.039364357 0 0.86217231
0.059047729 0 0.86402345
0.063705504 0 0.86619115
0.075892724 0 0.86409742
0.082688093 0 0.86865807
0.093716323 0 0.86186558
0.1040796 0 0.86543483
0.11411238 0 0.8650291
0.12765712 0 0.86314762
0.14864545 0 0.86618394
0.16097644 0 0.86026233
0.17637683 0 0.86079431
0.18573144 0 0.86660665
0.20402098 0 0.86385274
0.21388626 0 0.86531562
0.22225805 0 0.86604303
0.23476553 0 0.86729252
0.25326049 0 0.86358166
0.26215225 0 0.86701745
0.2884962 0 0.86123735
0.29391447 0 0.86991054
0.30847827 0 0.86290115
0.31596631 0 0.86353052
0.32766044 0 0.86966497
0.33303526 0 0.8668415
0.35324439 0 0.864779
0.38607243 0 0.86444026
0.3946242 0 0.86563772
0.40447292 0 0.8639968
0.41631693 0 0.8636601
0.42353329 0 0.86460084
0.43798664 0 0.86892772
0.44738245 0 0.86305046
0.45151803 0 0.86249435
0.46994972 0 0.8660959
0.47709855 0 0.86331272
0.50324374 0 0.86550283
0.51575041 0 0.86833048
0.52301908 0 0.86836559
0.53708184 0 0.86528116
0.5429104 0 0.8638882
0.55771899 0 0.86086518
0.56267762 0 0.86516756
0.57223582 0 0.86889261
0.58694923 0 0.86137903
0.59120858 0 0.86226434
0.60596627 0 0.8665387
0.6471923 0 0.86708194
0.66574591 0 0.86663598
0.69126433 0 0.86459708
0.70566112 0 0.86307794
0.72431344 0 0.8685413
0.7336781 0 0.8668263
0.74797022 0 0.86904144
0.75533712 0 0.86693108
0.77506632 0 0.86564767
0.7833935 0 0.86447114
0.79280746 0 0.86235261
0.80567408 0 0.86701632
0.81437486 0 0.86757451
0.83286506 0 0.86931396
0.84231836 0 0.86086518
