0.149455 0.093876 0.144197 0.000000 0.000000 0.000000 
0.135085 0.094065 0.143503 0.000000 0.000000 0.000000 
0.142590 0.094987 0.145223 0.000000 0.000000 0.000000 
0.147825 0.098932 0.144917 0.000000 0.000000 0.000000 
0.243318 0.097547 0.144597 0.000000 0.000000 0.000000 
0.187987 0.105295 0.144784 0.000000 0.000000 0.000000 
0.270828 0.113877 0.146100 0.000000 0.000000 0.000000 
0.256070 0.109038 0.143468 0.000000 0.000000 0.000000 
0.292701 0.117061 0.147606 0.000000 0.000000 0.000000 
0.303733 0.125895 0.142218 0.000000 0.000000 0.000000 
0.182992 0.140755 0.143659 0.000000 0.000000 0.000000 
0.191160 0.140040 0.144475 0.000000 0.000000 0.000000 
0.186823 0.143069 0.144585 0.000000 0.000000 0.000000 
0.243786 0.163162 0.146240 0.000000 0.000000 0.000000 
0.169277 0.173343 0.145496 0.000000 0.000000 0.000000 
0.276508 0.181771 0.140759 0.000000 0.000000 0.000000 
0.172076 0.179778 0.143894 0.000000 0.000000 0.000000 
0.172661 0.186469 0.146712 0.000000 0.000000 0.000000 
0.175508 0.189771 0.150297 0.000000 0.000000 0.000000 
0.168583 0.205556 0.145862 0.000000 0.000000 0.000000 
0.169490 0.210601 0.146136 0.000000 0.000000 0.000000 
0.159806 0.224473 0.143915 0.000000 0.000000 0.000000 
0.157940 0.231960 0.149517 0.000000 0.000000 0.000000 
0.150845 0.248150 0.143048 0.000000 0.000000 0.000000 
0.146314 0.257746 0.140581 0.000000 0.000000 0.000000 
0.199057 0.279491 0.145637 0.000000 0.000000 0.000000 
0.189177 0.308181 0.146030 0.000000 0.000000 0.000000 
0.139969 0.327363 0.140187 0.000000 0.000000 0.000000 
0.138802 0.328978 0.144304 0.000000 0.000000 0.000000 
0.121091 0.363996 0.149657 0.000000 0.000000 0.000000 
0.135085 0.359836 0.142026 0.000000 0.000000 0.000000 
0.178795 0.402374 0.149916 0.000000 0.000000 0.000000 
0.167292 0.417083 0.144114 0.000000 0.000000 0.000000 
0.205727 0.418698 0.143088 0.000000 0.000000 0.000000 
0.209080 0.419527 0.148716 0.000000 0.000000 0.000000 
0.158397 0.433187 0.143392 0.000000 0.000000 0.000000 
0.161201 0.449626 0.142678 0.000000 0.000000 0.000000 
0.165012 0.455924 0.140556 0.000000 0.000000 0.000000 
-0.012865 -0.284068 0.144936 0.000000 0.000000 0.000000 
-0.005821 -0.262075 0.147697 0.000000 0.000000 0.000000 
-0.140656 -0.268422 0.144183 0.000000 0.000000 0.000000 
-0.150544 -0.257270 0.144954 0.000000 0.000000 0.000000 
-0.160244 -0.257773 0.144279 0.000000 0.000000 0.000000 
0.004061 -0.239114 0.140474 0.000000 0.000000 0.000000 
-0.002199 -0.239628 0.147359 0.000000 0.000000 0.000000 
-0.202524 -0.216034 0.146655 0.000000 0.000000 0.000000 
-0.207212 -0.210030 0.145530 0.000000 0.000000 0.000000 
-0.008145 -0.192735 0.145407 0.000000 0.000000 0.000000 
-0.214057 -0.159910 0.143592 0.000000 0.000000 0.000000 
-0.029657 -0.144687 0.147109 0.000000 0.000000 0.000000 
-0.037216 -0.130917 0.146739 0.000000 0.000000 0.000000 
0.216185 -0.118645 0.149223 0.000000 0.000000 0.000000 
-0.202098 -0.113817 0.144397 0.000000 0.000000 0.000000 
-0.194954 -0.098373 0.145817 0.000000 0.000000 0.000000 
0.265932 -0.102812 0.144262 0.000000 0.000000 0.000000 
0.017050 -0.103437 0.145143 0.000000 0.000000 0.000000 
0.012770 -0.094415 0.145783 0.000000 0.000000 0.000000 
-0.004899 -0.087652 0.144794 0.000000 0.000000 0.000000 
0.020502 -0.087300 0.145194 0.000000 0.000000 0.000000 
0.029190 -0.086515 0.145289 0.000000 0.000000 0.000000 
0.015014 -0.078713 0.145541 0.000000 0.000000 0.000000 
0.001024 -0.080554 0.146070 0.000000 0.000000 0.000000 
0.035269 -0.084792 0.144611 0.000000 0.000000 0.000000 
0.026809 -0.071144 0.145885 0.000000 0.000000 0.000000 
0.026042 -0.078395 0.146092 0.000000 0.000000 0.000000 
-0.177197 -0.073666 0.146919 0.000000 0.000000 0.000000 
-0.000198 -0.075206 0.146292 0.000000 0.000000 0.000000 
0.017915 -0.074247 0.144257 0.000000 0.000000 0.000000 
0.022577 -0.074654 0.146018 0.000000 0.000000 0.000000 
-0.118698 -0.073417 0.147288 0.000000 0.000000 0.000000 
0.013137 -0.073447 0.145443 0.000000 0.000000 0.000000 
0.020892 -0.069074 0.146347 0.000000 0.000000 0.000000 
-0.002771 -0.071112 0.146114 0.000000 0.000000 0.000000 
-0.005939 -0.066576 0.145740 0.000000 0.000000 0.000000 
-0.009125 -0.061274 0.145350 0.000000 0.000000 0.000000 
0.037192 -0.064304 0.144707 0.000000 0.000000 0.000000 
0.009325 -0.069667 0.145398 0.000000 0.000000 0.000000 
0.242660 -0.061958 0.147190 0.000000 0.000000 0.000000 
0.002892 -0.061080 0.144579 0.000000 0.000000 0.000000 
0.000292 -0.065898 0.145954 0.000000 0.000000 0.000000 
-0.006654 -0.055273 0.145149 0.000000 0.000000 0.000000 
0.013894 -0.058002 0.146290 0.000000 0.000000 0.000000 
0.007719 -0.047093 0.145532 0.000000 0.000000 0.000000 
0.026552 -0.049479 0.144822 0.000000 0.000000 0.000000 
0.005684 -0.041377 0.144905 0.000000 0.000000 0.000000 
0.013601 -0.045692 0.145135 0.000000 0.000000 0.000000 
0.215363 -0.017261 0.141111 0.000000 0.000000 0.000000 
0.140551 -0.035692 0.154587 0.000000 0.000000 0.000000 
0.140979 -0.025749 0.147608 0.000000 0.000000 0.000000 
0.136077 -0.019160 0.146229 0.000000 0.000000 0.000000 
0.132149 -0.016799 0.148177 0.000000 0.000000 0.000000 
0.122647 -0.005607 0.148000 0.000000 0.000000 0.000000 
0.193219 0.003912 0.145792 0.000000 0.000000 0.000000 
0.096052 0.035780 0.148824 0.000000 0.000000 0.000000 
0.155494 0.038823 0.144642 0.000000 0.000000 0.000000 
0.156110 0.045378 0.144043 0.000000 0.000000 0.000000 
0.156132 0.052336 0.145157 0.000000 0.000000 0.000000 
0.158216 0.058638 0.145485 0.000000 0.000000 0.000000 
0.133606 0.060150 0.147335 0.000000 0.000000 0.000000 
0.154757 0.063164 0.145399 0.000000 0.000000 0.000000 
0.168811 0.065927 0.144720 0.000000 0.000000 0.000000 
0.132890 0.065112 0.146730 0.000000 0.000000 0.000000 
0.143970 0.067472 0.145183 0.000000 0.000000 0.000000 
0.149027 0.064593 0.145782 0.000000 0.000000 0.000000 
0.174960 0.070218 0.144764 0.000000 0.000000 0.000000 
0.165191 0.071882 0.145490 0.000000 0.000000 0.000000 
0.157538 0.073953 0.145894 0.000000 0.000000 0.000000 
0.191328 0.075410 0.145177 0.000000 0.000000 0.000000 
0.205208 0.074731 0.144059 0.000000 0.000000 0.000000 
0.150351 0.077324 0.145965 0.000000 0.000000 0.000000 
0.155826 0.080468 0.146040 0.000000 0.000000 0.000000 
0.212808 0.079380 0.144801 0.000000 0.000000 0.000000 
0.214091 0.087519 0.146594 0.000000 0.000000 0.000000 
0.147837 0.083014 0.145552 0.000000 0.000000 0.000000 
0.219841 0.083141 0.145041 0.000000 0.000000 0.000000 
0.146730 0.088921 0.145232 0.000000 0.000000 0.000000 
0.235126 0.095989 0.145806 0.000000 0.000000 0.000000 
0.231404 0.088554 0.144639 0.000000 0.000000 0.000000 
0.140064 0.089837 0.144560 0.000000 0.000000 0.000000 
0.142217 0.101777 0.146963 0.000000 0.000000 0.000000 
0.182627 0.097225 0.146728 0.000000 0.000000 0.000000 
0.136103 0.106165 0.145415 0.000000 0.000000 0.000000 
0.182297 0.102426 0.145067 0.000000 0.000000 0.000000 
0.132102 0.112211 0.144447 0.000000 0.000000 0.000000 
0.186815 0.110525 0.145719 0.000000 0.000000 0.000000 
0.251464 0.113460 0.146054 0.000000 0.000000 0.000000 
0.276515 0.113720 0.146581 0.000000 0.000000 0.000000 
0.296799 0.118422 0.147010 0.000000 0.000000 0.000000 
0.299258 0.118918 0.143181 0.000000 0.000000 0.000000 
0.308594 0.131055 0.147407 0.000000 0.000000 0.000000 
0.189634 0.131547 0.146219 0.000000 0.000000 0.000000 
0.180357 0.133563 0.147422 0.000000 0.000000 0.000000 
0.185205 0.133024 0.146230 0.000000 0.000000 0.000000 
0.191412 0.135774 0.145239 0.000000 0.000000 0.000000 
0.138746 0.145229 0.142802 0.000000 0.000000 0.000000 
0.148695 0.157062 0.142250 0.000000 0.000000 0.000000 
0.245651 0.157542 0.148928 0.000000 0.000000 0.000000 
0.161508 0.163715 0.145445 0.000000 0.000000 0.000000 
0.232280 0.168085 0.148768 0.000000 0.000000 0.000000 
0.256068 0.165885 0.146353 0.000000 0.000000 0.000000 
0.232614 0.174512 0.147136 0.000000 0.000000 0.000000 
0.232815 0.180644 0.146099 0.000000 0.000000 0.000000 
0.174885 0.176346 0.147753 0.000000 0.000000 0.000000 
0.300198 0.179942 0.146006 0.000000 0.000000 0.000000 
0.294383 0.184349 0.143603 0.000000 0.000000 0.000000 
0.170881 0.200126 0.144701 0.000000 0.000000 0.000000 
0.232806 0.204065 0.142417 0.000000 0.000000 0.000000 
0.171097 0.203313 0.149251 0.000000 0.000000 0.000000 
0.161449 0.218730 0.146097 0.000000 0.000000 0.000000 
0.158406 0.238420 0.147727 0.000000 0.000000 0.000000 
0.150787 0.251615 0.144332 0.000000 0.000000 0.000000 
0.202819 0.272667 0.141616 0.000000 0.000000 0.000000 
0.185596 0.316104 0.145893 0.000000 0.000000 0.000000 
0.137965 0.317203 0.145371 0.000000 0.000000 0.000000 
0.178106 0.326835 0.145441 0.000000 0.000000 0.000000 
0.120090 0.352060 0.142911 0.000000 0.000000 0.000000 
0.172579 0.409828 0.147414 0.000000 0.000000 0.000000 
0.216718 0.432335 0.143851 0.000000 0.000000 0.000000 
0.161887 0.453404 0.146723 0.000000 0.000000 0.000000 
0.172466 0.464727 0.144536 0.000000 0.000000 0.000000 
0.176885 0.467554 0.145971 0.000000 0.000000 0.000000 
-0.032456 -0.298562 0.151315 0.000000 0.000000 0.000000 
-0.111255 -0.286710 0.147906 0.000000 0.000000 0.000000 
-0.175201 -0.248834 0.145325 0.000000 0.000000 0.000000 
-0.169850 -0.238492 0.147799 0.000000 0.000000 0.000000 
-0.189641 -0.239398 0.144601 0.000000 0.000000 0.000000 
-0.005664 -0.231947 0.150220 0.000000 0.000000 0.000000 
-0.203734 -0.225015 0.143384 0.000000 0.000000 0.000000 
-0.003922 -0.216867 0.145571 0.000000 0.000000 0.000000 
-0.007469 -0.208513 0.147458 0.000000 0.000000 0.000000 
-0.004746 -0.201572 0.143585 0.000000 0.000000 0.000000 
-0.210846 -0.202736 0.144730 0.000000 0.000000 0.000000 
-0.018548 -0.185338 0.153360 0.000000 0.000000 0.000000 
-0.214488 -0.168585 0.143973 0.000000 0.000000 0.000000 
0.263665 -0.162142 0.148302 0.000000 0.000000 0.000000 
0.274379 -0.153763 0.148009 0.000000 0.000000 0.000000 
-0.209038 -0.145107 0.146306 0.000000 0.000000 0.000000 
0.272338 -0.131263 0.146842 0.000000 0.000000 0.000000 
-0.069334 -0.100666 0.149710 0.000000 0.000000 0.000000 
0.013993 -0.088946 0.145849 0.000000 0.000000 0.000000 
0.261158 -0.095292 0.147361 0.000000 0.000000 0.000000 
0.019878 -0.097056 0.144935 0.000000 0.000000 0.000000 
-0.082881 -0.084622 0.144746 0.000000 0.000000 0.000000 
0.008218 -0.091401 0.146077 0.000000 0.000000 0.000000 
0.004417 -0.086161 0.146313 0.000000 0.000000 0.000000 
0.009837 -0.085950 0.146303 0.000000 0.000000 0.000000 
0.004417 -0.075922 0.146491 0.000000 0.000000 0.000000 
0.006377 -0.081005 0.146477 0.000000 0.000000 0.000000 
0.003679 -0.070393 0.146028 0.000000 0.000000 0.000000 
0.019137 -0.063446 0.146368 0.000000 0.000000 0.000000 
0.247142 -0.058611 0.141628 0.000000 0.000000 0.000000 
0.019260 -0.057667 0.146014 0.000000 0.000000 0.000000 
0.010297 -0.052520 0.145859 0.000000 0.000000 0.000000 
0.232957 -0.045591 0.144855 0.000000 0.000000 0.000000 
0.151051 -0.048972 0.155769 0.000000 0.000000 0.000000 
0.202216 -0.008845 0.146231 0.000000 0.000000 0.000000 
0.105303 0.012399 0.149780 0.000000 0.000000 0.000000 
0.107952 0.015594 0.146031 0.000000 0.000000 0.000000 
0.098795 0.023834 0.149029 0.000000 0.000000 0.000000 
0.172022 0.024397 0.147645 0.000000 0.000000 0.000000 
0.164289 0.026425 0.149038 0.000000 0.000000 0.000000 
0.160480 0.032679 0.146085 0.000000 0.000000 0.000000 
0.151276 0.057554 0.146402 0.000000 0.000000 0.000000 
0.128086 0.059760 0.147745 0.000000 0.000000 0.000000 
0.127812 0.065127 0.145889 0.000000 0.000000 0.000000 
0.139148 0.064630 0.146945 0.000000 0.000000 0.000000 
0.162594 0.078486 0.146057 0.000000 0.000000 0.000000 
0.183075 0.072688 0.144842 0.000000 0.000000 0.000000 
0.198935 0.078770 0.145466 0.000000 0.000000 0.000000 
0.177925 0.077460 0.145706 0.000000 0.000000 0.000000 
0.185986 0.079733 0.146098 0.000000 0.000000 0.000000 
0.170260 0.076193 0.145733 0.000000 0.000000 0.000000 
0.206457 0.082685 0.145933 0.000000 0.000000 0.000000 
0.193424 0.083238 0.146283 0.000000 0.000000 0.000000 
0.152935 0.086103 0.146275 0.000000 0.000000 0.000000 
0.208076 0.090927 0.147348 0.000000 0.000000 0.000000 
0.195486 0.090908 0.147181 0.000000 0.000000 0.000000 
0.223019 0.089536 0.146116 0.000000 0.000000 0.000000 
0.154111 0.091689 0.146617 0.000000 0.000000 0.000000 
0.177369 0.099601 0.145918 0.000000 0.000000 0.000000 
0.148608 0.103178 0.149107 0.000000 0.000000 0.000000 
0.188839 0.099956 0.146466 0.000000 0.000000 0.000000 
0.182392 0.107426 0.145143 0.000000 0.000000 0.000000 
0.194565 0.103639 0.147172 0.000000 0.000000 0.000000 
0.192838 0.108866 0.145693 0.000000 0.000000 0.000000 
0.194791 0.113967 0.146265 0.000000 0.000000 0.000000 
0.134113 0.118625 0.147075 0.000000 0.000000 0.000000 
0.199113 0.108863 0.148333 0.000000 0.000000 0.000000 
0.200184 0.115505 0.148646 0.000000 0.000000 0.000000 
0.271952 0.118133 0.149425 0.000000 0.000000 0.000000 
0.245107 0.114856 0.147755 0.000000 0.000000 0.000000 
0.257258 0.120519 0.147062 0.000000 0.000000 0.000000 
0.258755 0.115088 0.145237 0.000000 0.000000 0.000000 
0.280714 0.116431 0.146101 0.000000 0.000000 0.000000 
0.284928 0.119538 0.144711 0.000000 0.000000 0.000000 
0.300023 0.123001 0.146505 0.000000 0.000000 0.000000 
0.131242 0.129776 0.144465 0.000000 0.000000 0.000000 
0.199339 0.128551 0.148933 0.000000 0.000000 0.000000 
0.307608 0.128953 0.141612 0.000000 0.000000 0.000000 
0.193712 0.129001 0.146517 0.000000 0.000000 0.000000 
0.196651 0.133659 0.147530 0.000000 0.000000 0.000000 
0.136604 0.132302 0.148484 0.000000 0.000000 0.000000 
0.195372 0.139174 0.149137 0.000000 0.000000 0.000000 
0.179607 0.138035 0.145312 0.000000 0.000000 0.000000 
0.139724 0.138583 0.148169 0.000000 0.000000 0.000000 
0.182042 0.144542 0.147770 0.000000 0.000000 0.000000 
0.186410 0.147499 0.149966 0.000000 0.000000 0.000000 
0.311969 0.153938 0.145761 0.000000 0.000000 0.000000 
0.152375 0.154144 0.147063 0.000000 0.000000 0.000000 
0.252024 0.155599 0.150874 0.000000 0.000000 0.000000 
0.162840 0.170179 0.143134 0.000000 0.000000 0.000000 
0.168212 0.166473 0.147290 0.000000 0.000000 0.000000 
0.260368 0.171019 0.145686 0.000000 0.000000 0.000000 
0.266775 0.180616 0.147387 0.000000 0.000000 0.000000 
0.176333 0.182790 0.149727 0.000000 0.000000 0.000000 
0.277183 0.187565 0.145061 0.000000 0.000000 0.000000 
0.282864 0.191859 0.146069 0.000000 0.000000 0.000000 
0.287374 0.196920 0.150203 0.000000 0.000000 0.000000 
0.173892 0.199561 0.151484 0.000000 0.000000 0.000000 
0.164847 0.213482 0.146401 0.000000 0.000000 0.000000 
0.157198 0.229357 0.144309 0.000000 0.000000 0.000000 
0.151762 0.245284 0.145530 0.000000 0.000000 0.000000 
0.148747 0.254138 0.141800 0.000000 0.000000 0.000000 
0.147499 0.260421 0.144644 0.000000 0.000000 0.000000 
0.218819 0.257154 0.146001 0.000000 0.000000 0.000000 
0.214939 0.264215 0.148070 0.000000 0.000000 0.000000 
0.138430 0.277892 0.148417 0.000000 0.000000 0.000000 
0.142381 0.280542 0.139233 0.000000 0.000000 0.000000 
0.138705 0.288945 0.143480 0.000000 0.000000 0.000000 
0.138567 0.301097 0.143566 0.000000 0.000000 0.000000 
0.166178 0.339885 0.145183 0.000000 0.000000 0.000000 
0.138248 0.359468 0.148789 0.000000 0.000000 0.000000 
0.140305 0.357655 0.143717 0.000000 0.000000 0.000000 
0.123147 0.362133 0.144611 0.000000 0.000000 0.000000 
0.162064 0.423166 0.143284 0.000000 0.000000 0.000000 
0.213219 0.425419 0.145216 0.000000 0.000000 0.000000 
0.218661 0.439793 0.144502 0.000000 0.000000 0.000000 
0.217280 0.454545 0.143629 0.000000 0.000000 0.000000 
0.210624 0.464986 0.144696 0.000000 0.000000 0.000000 
0.187191 0.467784 0.147759 0.000000 0.000000 0.000000 
0.185471 0.471622 0.143606 0.000000 0.000000 0.000000 
-0.118832 -0.281720 0.146653 0.000000 0.000000 0.000000 
-0.142916 -0.261111 0.147589 0.000000 0.000000 0.000000 
-0.156133 -0.253894 0.147028 0.000000 0.000000 0.000000 
-0.152149 -0.249418 0.148074 0.000000 0.000000 0.000000 
-0.167087 -0.244739 0.145768 0.000000 0.000000 0.000000 
-0.182368 -0.238925 0.147084 0.000000 0.000000 0.000000 
-0.198100 -0.222973 0.146726 0.000000 0.000000 0.000000 
-0.013464 -0.206685 0.153451 0.000000 0.000000 0.000000 
-0.211193 -0.189538 0.146183 0.000000 0.000000 0.000000 
-0.015354 -0.172389 0.146634 0.000000 0.000000 0.000000 
-0.208565 -0.160742 0.148619 0.000000 0.000000 0.000000 
0.277651 -0.150901 0.142410 0.000000 0.000000 0.000000 
0.251142 -0.155990 0.149934 0.000000 0.000000 0.000000 
-0.211788 -0.152234 0.144843 0.000000 0.000000 0.000000 
-0.035484 -0.146221 0.152480 0.000000 0.000000 0.000000 
0.233640 -0.129138 0.142233 0.000000 0.000000 0.000000 
-0.202262 -0.130036 0.149302 0.000000 0.000000 0.000000 
0.206759 -0.117746 0.156484 0.000000 0.000000 0.000000 
-0.177508 -0.082208 0.149679 0.000000 0.000000 0.000000 
-0.099378 -0.076575 0.144521 0.000000 0.000000 0.000000 
-0.168827 -0.077571 0.149947 0.000000 0.000000 0.000000 
-0.116301 -0.079756 0.150764 0.000000 0.000000 0.000000 
0.180567 -0.077344 0.150834 0.000000 0.000000 0.000000 
-0.150295 -0.073311 0.149858 0.000000 0.000000 0.000000 
-0.142254 -0.069964 0.148225 0.000000 0.000000 0.000000 
0.157461 -0.053707 0.153725 0.000000 0.000000 0.000000 
0.224812 -0.031397 0.142208 0.000000 0.000000 0.000000 
0.217903 -0.032080 0.146741 0.000000 0.000000 0.000000 
0.138311 -0.031410 0.153107 0.000000 0.000000 0.000000 
0.130631 -0.020774 0.151702 0.000000 0.000000 0.000000 
0.127549 -0.014714 0.150371 0.000000 0.000000 0.000000 
0.122356 -0.010615 0.151974 0.000000 0.000000 0.000000 
0.187619 0.010333 0.146233 0.000000 0.000000 0.000000 
0.182876 0.016866 0.145937 0.000000 0.000000 0.000000 
0.174881 0.016610 0.150387 0.000000 0.000000 0.000000 
0.106976 0.050404 0.148927 0.000000 0.000000 0.000000 
0.142056 0.054256 0.149098 0.000000 0.000000 0.000000 
0.136566 0.054242 0.151505 0.000000 0.000000 0.000000 
0.122515 0.058529 0.149176 0.000000 0.000000 0.000000 
0.144721 0.060180 0.146954 0.000000 0.000000 0.000000 
0.173191 0.082335 0.146625 0.000000 0.000000 0.000000 
0.166245 0.083254 0.146841 0.000000 0.000000 0.000000 
0.159397 0.085941 0.147025 0.000000 0.000000 0.000000 
0.200954 0.087092 0.146809 0.000000 0.000000 0.000000 
0.188057 0.087331 0.146817 0.000000 0.000000 0.000000 
0.176269 0.087837 0.147967 0.000000 0.000000 0.000000 
0.182594 0.091123 0.148113 0.000000 0.000000 0.000000 
0.202947 0.095736 0.148254 0.000000 0.000000 0.000000 
0.227009 0.095604 0.147067 0.000000 0.000000 0.000000 
0.176696 0.093353 0.147561 0.000000 0.000000 0.000000 
0.189194 0.093996 0.147659 0.000000 0.000000 0.000000 
0.170572 0.098404 0.150703 0.000000 0.000000 0.000000 
0.195919 0.097561 0.148286 0.000000 0.000000 0.000000 
0.201321 0.102750 0.149432 0.000000 0.000000 0.000000 
0.237759 0.103370 0.147147 0.000000 0.000000 0.000000 
0.245171 0.106189 0.146167 0.000000 0.000000 0.000000 
0.238479 0.110846 0.148549 0.000000 0.000000 0.000000 
0.288652 0.120344 0.154354 0.000000 0.000000 0.000000 
0.288239 0.117796 0.149826 0.000000 0.000000 0.000000 
0.277381 0.120149 0.150966 0.000000 0.000000 0.000000 
0.243508 0.124002 0.148891 0.000000 0.000000 0.000000 
0.195092 0.124421 0.147375 0.000000 0.000000 0.000000 
0.250099 0.121517 0.147754 0.000000 0.000000 0.000000 
0.189246 0.127110 0.149305 0.000000 0.000000 0.000000 
0.302438 0.127248 0.147764 0.000000 0.000000 0.000000 
0.313273 0.147108 0.147680 0.000000 0.000000 0.000000 
0.190859 0.144024 0.147732 0.000000 0.000000 0.000000 
0.312035 0.159650 0.151721 0.000000 0.000000 0.000000 
0.238601 0.159520 0.148672 0.000000 0.000000 0.000000 
0.175009 0.169675 0.149470 0.000000 0.000000 0.000000 
0.233513 0.187837 0.144188 0.000000 0.000000 0.000000 
0.275667 0.192403 0.149546 0.000000 0.000000 0.000000 
0.297487 0.187700 0.150237 0.000000 0.000000 0.000000 
0.172042 0.208591 0.148998 0.000000 0.000000 0.000000 
0.226450 0.239699 0.146068 0.000000 0.000000 0.000000 
0.153666 0.245157 0.149128 0.000000 0.000000 0.000000 
0.225663 0.243273 0.145345 0.000000 0.000000 0.000000 
0.147345 0.256146 0.146408 0.000000 0.000000 0.000000 
0.149469 0.255410 0.150713 0.000000 0.000000 0.000000 
0.140558 0.276480 0.142655 0.000000 0.000000 0.000000 
0.135990 0.331872 0.146095 0.000000 0.000000 0.000000 
0.171646 0.339907 0.149609 0.000000 0.000000 0.000000 
0.159973 0.347528 0.150699 0.000000 0.000000 0.000000 
0.149243 0.352170 0.144131 0.000000 0.000000 0.000000 
0.117193 0.358901 0.150052 0.000000 0.000000 0.000000 
0.177947 0.407698 0.145937 0.000000 0.000000 0.000000 
0.192802 0.410002 0.144633 0.000000 0.000000 0.000000 
0.201725 0.415027 0.146945 0.000000 0.000000 0.000000 
0.162614 0.418313 0.147337 0.000000 0.000000 0.000000 
0.210576 0.422836 0.140672 0.000000 0.000000 0.000000 
0.157781 0.426746 0.147309 0.000000 0.000000 0.000000 
0.218311 0.447208 0.146124 0.000000 0.000000 0.000000 
-0.053677 -0.308592 0.146742 0.000000 0.000000 0.000000 
-0.043854 -0.306133 0.148984 0.000000 0.000000 0.000000 
-0.089590 -0.300428 0.145280 0.000000 0.000000 0.000000 
-0.162514 -0.251024 0.146343 0.000000 0.000000 0.000000 
-0.176003 -0.236031 0.149959 0.000000 0.000000 0.000000 
-0.175206 -0.242793 0.147500 0.000000 0.000000 0.000000 
-0.008733 -0.223283 0.151939 0.000000 0.000000 0.000000 
-0.014307 -0.192074 0.150924 0.000000 0.000000 0.000000 
-0.020009 -0.165142 0.147961 0.000000 0.000000 0.000000 
-0.025610 -0.165292 0.152849 0.000000 0.000000 0.000000 
0.254448 -0.151502 0.142881 0.000000 0.000000 0.000000 
0.258215 -0.157538 0.145942 0.000000 0.000000 0.000000 
-0.025889 -0.158152 0.149973 0.000000 0.000000 0.000000 
0.270220 -0.159757 0.148767 0.000000 0.000000 0.000000 
0.238963 -0.145402 0.150014 0.000000 0.000000 0.000000 
0.244147 -0.142628 0.143672 0.000000 0.000000 0.000000 
-0.044669 -0.126472 0.149560 0.000000 0.000000 0.000000 
0.225399 -0.123331 0.144698 0.000000 0.000000 0.000000 
0.196504 -0.101244 0.153481 0.000000 0.000000 0.000000 
-0.078673 -0.092082 0.148285 0.000000 0.000000 0.000000 
-0.188867 -0.089903 0.147325 0.000000 0.000000 0.000000 
-0.180715 -0.100587 0.153870 0.000000 0.000000 0.000000 
-0.091708 -0.081869 0.145827 0.000000 0.000000 0.000000 
-0.106968 -0.080988 0.149537 0.000000 0.000000 0.000000 
-0.168504 -0.069237 0.147257 0.000000 0.000000 0.000000 
-0.159590 -0.073268 0.149449 0.000000 0.000000 0.000000 
0.239252 -0.053783 0.145071 0.000000 0.000000 0.000000 
0.231179 -0.052097 0.150129 0.000000 0.000000 0.000000 
0.208465 -0.018023 0.146657 0.000000 0.000000 0.000000 
0.191665 -0.003398 0.150669 0.000000 0.000000 0.000000 
0.119104 -0.001454 0.147885 0.000000 0.000000 0.000000 
0.107888 0.006774 0.152071 0.000000 0.000000 0.000000 
0.100230 0.027185 0.145302 0.000000 0.000000 0.000000 
0.150722 0.041933 0.148686 0.000000 0.000000 0.000000 
0.151780 0.048924 0.147189 0.000000 0.000000 0.000000 
0.101102 0.043000 0.154539 0.000000 0.000000 0.000000 
0.120763 0.053670 0.150608 0.000000 0.000000 0.000000 
0.116900 0.056215 0.148098 0.000000 0.000000 0.000000 
0.131084 0.055940 0.151163 0.000000 0.000000 0.000000 
0.181197 0.084018 0.146984 0.000000 0.000000 0.000000 
0.217292 0.094889 0.147911 0.000000 0.000000 0.000000 
0.221756 0.100990 0.148933 0.000000 0.000000 0.000000 
0.142920 0.107850 0.149523 0.000000 0.000000 0.000000 
0.229906 0.102708 0.148301 0.000000 0.000000 0.000000 
0.177581 0.104905 0.147167 0.000000 0.000000 0.000000 
0.230955 0.110063 0.149602 0.000000 0.000000 0.000000 
0.182950 0.110697 0.148740 0.000000 0.000000 0.000000 
0.189710 0.113386 0.147609 0.000000 0.000000 0.000000 
0.138559 0.112645 0.148504 0.000000 0.000000 0.000000 
0.293716 0.120192 0.152161 0.000000 0.000000 0.000000 
0.239105 0.118617 0.149422 0.000000 0.000000 0.000000 
0.191669 0.117151 0.150028 0.000000 0.000000 0.000000 
0.200854 0.122079 0.149284 0.000000 0.000000 0.000000 
0.255393 0.126983 0.148982 0.000000 0.000000 0.000000 
0.204656 0.127285 0.151845 0.000000 0.000000 0.000000 
0.235777 0.125777 0.150385 0.000000 0.000000 0.000000 
0.306486 0.127464 0.146498 0.000000 0.000000 0.000000 
0.305326 0.130060 0.151874 0.000000 0.000000 0.000000 
0.247514 0.129914 0.148858 0.000000 0.000000 0.000000 
0.201858 0.134823 0.151742 0.000000 0.000000 0.000000 
0.310384 0.136145 0.149195 0.000000 0.000000 0.000000 
0.144176 0.144256 0.148067 0.000000 0.000000 0.000000 
0.149265 0.148193 0.149136 0.000000 0.000000 0.000000 
0.233213 0.154698 0.149840 0.000000 0.000000 0.000000 
0.231710 0.161149 0.150014 0.000000 0.000000 0.000000 
0.259481 0.165041 0.151259 0.000000 0.000000 0.000000 
0.225819 0.164518 0.150772 0.000000 0.000000 0.000000 
0.227565 0.171916 0.150638 0.000000 0.000000 0.000000 
0.263712 0.175615 0.148908 0.000000 0.000000 0.000000 
0.170825 0.192519 0.145967 0.000000 0.000000 0.000000 
0.291181 0.191143 0.147418 0.000000 0.000000 0.000000 
0.172758 0.197865 0.147967 0.000000 0.000000 0.000000 
0.174476 0.207101 0.152203 0.000000 0.000000 0.000000 
0.231595 0.219727 0.141305 0.000000 0.000000 0.000000 
0.162157 0.223167 0.148385 0.000000 0.000000 0.000000 
0.159149 0.227138 0.148861 0.000000 0.000000 0.000000 
0.155981 0.234514 0.145639 0.000000 0.000000 0.000000 
0.148863 0.252159 0.147957 0.000000 0.000000 0.000000 
0.148649 0.260301 0.149948 0.000000 0.000000 0.000000 
0.142571 0.267902 0.144489 0.000000 0.000000 0.000000 
0.141821 0.268201 0.150519 0.000000 0.000000 0.000000 
0.136207 0.305900 0.146449 0.000000 0.000000 0.000000 
0.133977 0.319820 0.149380 0.000000 0.000000 0.000000 
0.132908 0.326792 0.150991 0.000000 0.000000 0.000000 
0.125838 0.342364 0.151098 0.000000 0.000000 0.000000 
0.166769 0.344472 0.150788 0.000000 0.000000 0.000000 
0.162019 0.343661 0.145840 0.000000 0.000000 0.000000 
0.154126 0.349440 0.147164 0.000000 0.000000 0.000000 
0.131680 0.361756 0.145885 0.000000 0.000000 0.000000 
0.167672 0.406761 0.149168 0.000000 0.000000 0.000000 
0.165952 0.412497 0.148405 0.000000 0.000000 0.000000 
0.157490 0.420677 0.149799 0.000000 0.000000 0.000000 
0.204629 0.414396 0.153214 0.000000 0.000000 0.000000 
0.210278 0.420289 0.155968 0.000000 0.000000 0.000000 
0.155316 0.432236 0.149040 0.000000 0.000000 0.000000 
0.193125 0.466117 0.150787 0.000000 0.000000 0.000000 
0.192225 0.471248 0.147185 0.000000 0.000000 0.000000 
-0.026099 -0.291901 0.151899 0.000000 0.000000 0.000000 
-0.120161 -0.273581 0.153787 0.000000 0.000000 0.000000 
-0.147183 -0.247628 0.153290 0.000000 0.000000 0.000000 
-0.152947 -0.248985 0.147962 0.000000 0.000000 0.000000 
-0.164903 -0.241206 0.149942 0.000000 0.000000 0.000000 
-0.153731 -0.242211 0.150833 0.000000 0.000000 0.000000 
-0.165876 -0.234980 0.152324 0.000000 0.000000 0.000000 
-0.173897 -0.228911 0.151625 0.000000 0.000000 0.000000 
-0.170201 -0.232277 0.149519 0.000000 0.000000 0.000000 
-0.181393 -0.231695 0.149948 0.000000 0.000000 0.000000 
-0.188492 -0.232009 0.147626 0.000000 0.000000 0.000000 
-0.010487 -0.215072 0.152062 0.000000 0.000000 0.000000 
-0.195311 -0.216471 0.149951 0.000000 0.000000 0.000000 
-0.207398 -0.196350 0.147784 0.000000 0.000000 0.000000 
-0.016190 -0.199101 0.154531 0.000000 0.000000 0.000000 
-0.207684 -0.183246 0.149044 0.000000 0.000000 0.000000 
-0.211393 -0.175697 0.146728 0.000000 0.000000 0.000000 
-0.021606 -0.172330 0.152033 0.000000 0.000000 0.000000 
0.257540 -0.162535 0.151876 0.000000 0.000000 0.000000 
0.265523 -0.160877 0.154679 0.000000 0.000000 0.000000 
0.272059 -0.149371 0.152157 0.000000 0.000000 0.000000 
-0.202546 -0.144531 0.151635 0.000000 0.000000 0.000000 
0.275100 -0.145434 0.146238 0.000000 0.000000 0.000000 
-0.204642 -0.137554 0.148908 0.000000 0.000000 0.000000 
-0.036354 -0.139047 0.149720 0.000000 0.000000 0.000000 
-0.195889 -0.125038 0.152625 0.000000 0.000000 0.000000 
-0.053369 -0.113678 0.148410 0.000000 0.000000 0.000000 
0.264958 -0.109633 0.148789 0.000000 0.000000 0.000000 
-0.060777 -0.108612 0.149810 0.000000 0.000000 0.000000 
-0.187426 -0.097705 0.150421 0.000000 0.000000 0.000000 
0.258245 -0.084720 0.145743 0.000000 0.000000 0.000000 
0.252451 -0.082041 0.150462 0.000000 0.000000 0.000000 
-0.126144 -0.077565 0.150789 0.000000 0.000000 0.000000 
0.176108 -0.081802 0.157252 0.000000 0.000000 0.000000 
0.253403 -0.074738 0.145466 0.000000 0.000000 0.000000 
0.161205 -0.061242 0.155456 0.000000 0.000000 0.000000 
0.217455 -0.038909 0.152198 0.000000 0.000000 0.000000 
0.195427 -0.010090 0.151809 0.000000 0.000000 0.000000 
0.111925 0.004467 0.149674 0.000000 0.000000 0.000000 
0.185440 0.003076 0.151437 0.000000 0.000000 0.000000 
0.103194 0.019056 0.147577 0.000000 0.000000 0.000000 
0.152279 0.034138 0.147231 0.000000 0.000000 0.000000 
0.101263 0.047369 0.148381 0.000000 0.000000 0.000000 
0.106497 0.043405 0.158828 0.000000 0.000000 0.000000 
0.115890 0.051112 0.151313 0.000000 0.000000 0.000000 
0.147304 0.053362 0.147700 0.000000 0.000000 0.000000 
0.120513 0.049525 0.154208 0.000000 0.000000 0.000000 
0.138680 0.058652 0.147437 0.000000 0.000000 0.000000 
0.163753 0.089578 0.148633 0.000000 0.000000 0.000000 
0.158455 0.093547 0.149089 0.000000 0.000000 0.000000 
0.170147 0.088088 0.148385 0.000000 0.000000 0.000000 
0.173039 0.096695 0.147029 0.000000 0.000000 0.000000 
0.153226 0.098301 0.149071 0.000000 0.000000 0.000000 
0.173157 0.102750 0.148056 0.000000 0.000000 0.000000 
0.210790 0.098382 0.148884 0.000000 0.000000 0.000000 
0.207647 0.104868 0.150062 0.000000 0.000000 0.000000 
0.183870 0.114620 0.149568 0.000000 0.000000 0.000000 
0.204783 0.111658 0.150788 0.000000 0.000000 0.000000 
0.187317 0.117616 0.149984 0.000000 0.000000 0.000000 
0.232430 0.117551 0.150473 0.000000 0.000000 0.000000 
0.183016 0.119598 0.149888 0.000000 0.000000 0.000000 
0.283201 0.119557 0.149877 0.000000 0.000000 0.000000 
0.195962 0.119438 0.147503 0.000000 0.000000 0.000000 
0.240415 0.132080 0.149653 0.000000 0.000000 0.000000 
0.178222 0.141335 0.149383 0.000000 0.000000 0.000000 
0.244940 0.137963 0.149065 0.000000 0.000000 0.000000 
0.199672 0.141523 0.152089 0.000000 0.000000 0.000000 
0.237542 0.140426 0.149856 0.000000 0.000000 0.000000 
0.235519 0.147373 0.150008 0.000000 0.000000 0.000000 
0.240419 0.152628 0.149168 0.000000 0.000000 0.000000 
0.242828 0.145400 0.149164 0.000000 0.000000 0.000000 
0.247462 0.150795 0.149746 0.000000 0.000000 0.000000 
0.224651 0.156832 0.150934 0.000000 0.000000 0.000000 
0.261571 0.170252 0.150951 0.000000 0.000000 0.000000 
0.305164 0.175169 0.150070 0.000000 0.000000 0.000000 
0.179733 0.176075 0.151208 0.000000 0.000000 0.000000 
0.181664 0.182659 0.153078 0.000000 0.000000 0.000000 
0.228578 0.185841 0.149568 0.000000 0.000000 0.000000 
0.271960 0.184454 0.146750 0.000000 0.000000 0.000000 
0.299252 0.191324 0.157779 0.000000 0.000000 0.000000 
0.175067 0.195716 0.151015 0.000000 0.000000 0.000000 
0.162305 0.224743 0.153464 0.000000 0.000000 0.000000 
0.156398 0.238843 0.151990 0.000000 0.000000 0.000000 
0.154392 0.241681 0.146524 0.000000 0.000000 0.000000 
0.152035 0.249162 0.147681 0.000000 0.000000 0.000000 
0.222731 0.251431 0.149354 0.000000 0.000000 0.000000 
0.143934 0.263964 0.153522 0.000000 0.000000 0.000000 
0.207532 0.278822 0.153422 0.000000 0.000000 0.000000 
0.184610 0.319334 0.152968 0.000000 0.000000 0.000000 
0.130690 0.332450 0.153227 0.000000 0.000000 0.000000 
0.133000 0.334731 0.148417 0.000000 0.000000 0.000000 
0.121356 0.347932 0.147232 0.000000 0.000000 0.000000 
0.144665 0.355574 0.147445 0.000000 0.000000 0.000000 
0.118564 0.356812 0.145586 0.000000 0.000000 0.000000 
0.172900 0.403767 0.148829 0.000000 0.000000 0.000000 
0.161886 0.407099 0.151167 0.000000 0.000000 0.000000 
0.159377 0.413567 0.150172 0.000000 0.000000 0.000000 
0.195641 0.409227 0.150025 0.000000 0.000000 0.000000 
0.152412 0.428164 0.153441 0.000000 0.000000 0.000000 
0.216250 0.433088 0.151361 0.000000 0.000000 0.000000 
0.165895 0.458266 0.146177 0.000000 0.000000 0.000000 
0.213744 0.459540 0.147068 0.000000 0.000000 0.000000 
0.198133 0.469157 0.149565 0.000000 0.000000 0.000000 
0.200645 0.471195 0.144804 0.000000 0.000000 0.000000 
-0.070849 -0.304091 0.148907 0.000000 0.000000 0.000000 
-0.080220 -0.300218 0.149754 0.000000 0.000000 0.000000 
-0.010302 -0.269768 0.149145 0.000000 0.000000 0.000000 
-0.126975 -0.268699 0.152060 0.000000 0.000000 0.000000 
-0.136478 -0.257610 0.153092 0.000000 0.000000 0.000000 
-0.159300 -0.246658 0.149667 0.000000 0.000000 0.000000 
-0.160595 -0.235533 0.153437 0.000000 0.000000 0.000000 
-0.185046 -0.225018 0.151189 0.000000 0.000000 0.000000 
-0.191645 -0.224218 0.149053 0.000000 0.000000 0.000000 
-0.187771 -0.217273 0.152621 0.000000 0.000000 0.000000 
-0.203810 -0.203306 0.148723 0.000000 0.000000 0.000000 
-0.204605 -0.176326 0.151237 0.000000 0.000000 0.000000 
-0.207258 -0.168750 0.149812 0.000000 0.000000 0.000000 
-0.204735 -0.153202 0.150903 0.000000 0.000000 0.000000 
-0.031722 -0.152886 0.152648 0.000000 0.000000 0.000000 
-0.197567 -0.136126 0.153638 0.000000 0.000000 0.000000 
0.227982 -0.131385 0.148485 0.000000 0.000000 0.000000 
0.220644 -0.126982 0.151310 0.000000 0.000000 0.000000 
-0.201842 -0.121654 0.147195 0.000000 0.000000 0.000000 
0.261258 -0.103094 0.151036 0.000000 0.000000 0.000000 
-0.098561 -0.084710 0.149803 0.000000 0.000000 0.000000 
-0.161127 -0.082162 0.152440 0.000000 0.000000 0.000000 
-0.143090 -0.079297 0.152455 0.000000 0.000000 0.000000 
0.248219 -0.068129 0.146270 0.000000 0.000000 0.000000 
0.173321 -0.072450 0.153250 0.000000 0.000000 0.000000 
0.235915 -0.058712 0.150303 0.000000 0.000000 0.000000 
0.225065 -0.045844 0.150714 0.000000 0.000000 0.000000 
0.224751 -0.038939 0.146856 0.000000 0.000000 0.000000 
0.201626 -0.016894 0.151196 0.000000 0.000000 0.000000 
0.127517 -0.023767 0.156414 0.000000 0.000000 0.000000 
0.124987 -0.016906 0.153665 0.000000 0.000000 0.000000 
0.118884 -0.005531 0.152283 0.000000 0.000000 0.000000 
0.098275 0.019566 0.152193 0.000000 0.000000 0.000000 
0.095315 0.024847 0.155090 0.000000 0.000000 0.000000 
0.156428 0.028243 0.149982 0.000000 0.000000 0.000000 
0.096400 0.029599 0.150173 0.000000 0.000000 0.000000 
0.148543 0.030534 0.151046 0.000000 0.000000 0.000000 
0.097182 0.041940 0.149068 0.000000 0.000000 0.000000 
0.146881 0.047598 0.150685 0.000000 0.000000 0.000000 
0.132931 0.050421 0.154058 0.000000 0.000000 0.000000 
0.169932 0.093039 0.150190 0.000000 0.000000 0.000000 
0.170680 0.102384 0.152778 0.000000 0.000000 0.000000 
0.223419 0.108379 0.150168 0.000000 0.000000 0.000000 
0.178983 0.108018 0.149988 0.000000 0.000000 0.000000 
0.215639 0.105121 0.150125 0.000000 0.000000 0.000000 
0.179809 0.112271 0.152498 0.000000 0.000000 0.000000 
0.224862 0.116326 0.151263 0.000000 0.000000 0.000000 
0.211270 0.111477 0.151322 0.000000 0.000000 0.000000 
0.265251 0.120359 0.148887 0.000000 0.000000 0.000000 
0.271178 0.122989 0.152769 0.000000 0.000000 0.000000 
0.191308 0.122084 0.150354 0.000000 0.000000 0.000000 
0.206147 0.118996 0.151703 0.000000 0.000000 0.000000 
0.227322 0.123400 0.151610 0.000000 0.000000 0.000000 
0.266698 0.126353 0.152943 0.000000 0.000000 0.000000 
0.296556 0.123546 0.150507 0.000000 0.000000 0.000000 
0.229638 0.129686 0.151408 0.000000 0.000000 0.000000 
0.178885 0.130217 0.151605 0.000000 0.000000 0.000000 
0.253226 0.132156 0.149789 0.000000 0.000000 0.000000 
0.309330 0.134590 0.146760 0.000000 0.000000 0.000000 
0.233728 0.135079 0.150798 0.000000 0.000000 0.000000 
0.145289 0.138119 0.152714 0.000000 0.000000 0.000000 
0.207252 0.140084 0.152747 0.000000 0.000000 0.000000 
0.226305 0.136290 0.151744 0.000000 0.000000 0.000000 
0.229230 0.142715 0.151188 0.000000 0.000000 0.000000 
0.251903 0.138253 0.150007 0.000000 0.000000 0.000000 
0.193768 0.146087 0.151041 0.000000 0.000000 0.000000 
0.190154 0.151572 0.152794 0.000000 0.000000 0.000000 
0.228698 0.149995 0.150916 0.000000 0.000000 0.000000 
0.215809 0.147422 0.152077 0.000000 0.000000 0.000000 
0.222238 0.149050 0.151450 0.000000 0.000000 0.000000 
0.313511 0.152415 0.152832 0.000000 0.000000 0.000000 
0.159105 0.157030 0.148468 0.000000 0.000000 0.000000 
0.166047 0.159304 0.149425 0.000000 0.000000 0.000000 
0.216367 0.155720 0.151796 0.000000 0.000000 0.000000 
0.218758 0.163093 0.151633 0.000000 0.000000 0.000000 
0.173416 0.162830 0.150247 0.000000 0.000000 0.000000 
0.221380 0.170501 0.151808 0.000000 0.000000 0.000000 
0.264153 0.179856 0.153815 0.000000 0.000000 0.000000 
0.266825 0.185101 0.152380 0.000000 0.000000 0.000000 
0.222441 0.184316 0.153149 0.000000 0.000000 0.000000 
0.228873 0.192841 0.149100 0.000000 0.000000 0.000000 
0.294011 0.194908 0.153617 0.000000 0.000000 0.000000 
0.178426 0.198672 0.155039 0.000000 0.000000 0.000000 
0.290100 0.201738 0.156647 0.000000 0.000000 0.000000 
0.283429 0.202520 0.153392 0.000000 0.000000 0.000000 
0.230039 0.199402 0.147897 0.000000 0.000000 0.000000 
0.174812 0.202399 0.153177 0.000000 0.000000 0.000000 
0.169487 0.211904 0.153098 0.000000 0.000000 0.000000 
0.165304 0.215570 0.151012 0.000000 0.000000 0.000000 
0.164225 0.219944 0.152016 0.000000 0.000000 0.000000 
0.228434 0.219231 0.148020 0.000000 0.000000 0.000000 
0.160719 0.229260 0.153672 0.000000 0.000000 0.000000 
0.162142 0.233590 0.154237 0.000000 0.000000 0.000000 
0.160139 0.236034 0.151024 0.000000 0.000000 0.000000 
0.154239 0.241978 0.151560 0.000000 0.000000 0.000000 
0.154473 0.245335 0.154402 0.000000 0.000000 0.000000 
0.151931 0.247812 0.151624 0.000000 0.000000 0.000000 
0.145209 0.264123 0.148264 0.000000 0.000000 0.000000 
0.210148 0.271111 0.149342 0.000000 0.000000 0.000000 
0.204376 0.275601 0.147818 0.000000 0.000000 0.000000 
0.139084 0.282611 0.144087 0.000000 0.000000 0.000000 
0.136947 0.286030 0.148792 0.000000 0.000000 0.000000 
0.196132 0.285122 0.147607 0.000000 0.000000 0.000000 
0.194030 0.289579 0.151525 0.000000 0.000000 0.000000 
0.191790 0.300360 0.145989 0.000000 0.000000 0.000000 
0.183107 0.323240 0.148308 0.000000 0.000000 0.000000 
0.180250 0.329956 0.149831 0.000000 0.000000 0.000000 
0.166473 0.401458 0.151919 0.000000 0.000000 0.000000 
0.184452 0.402712 0.151557 0.000000 0.000000 0.000000 
0.189786 0.406092 0.149411 0.000000 0.000000 0.000000 
0.159603 0.401562 0.153922 0.000000 0.000000 0.000000 
0.199808 0.411298 0.152666 0.000000 0.000000 0.000000 
0.156026 0.408789 0.153384 0.000000 0.000000 0.000000 
0.217342 0.440172 0.151291 0.000000 0.000000 0.000000 
0.215054 0.440021 0.158366 0.000000 0.000000 0.000000 
0.169773 0.462025 0.147939 0.000000 0.000000 0.000000 
0.198872 0.463856 0.154001 0.000000 0.000000 0.000000 
0.205335 0.468029 0.147204 0.000000 0.000000 0.000000 
-0.020370 -0.284392 0.151784 0.000000 0.000000 0.000000 
-0.015017 -0.277295 0.150536 0.000000 0.000000 0.000000 
-0.012874 -0.262815 0.154324 0.000000 0.000000 0.000000 
-0.008657 -0.255052 0.152627 0.000000 0.000000 0.000000 
-0.144386 -0.253992 0.151052 0.000000 0.000000 0.000000 
-0.011577 -0.247111 0.156956 0.000000 0.000000 0.000000 
-0.008491 -0.239491 0.154060 0.000000 0.000000 0.000000 
-0.160141 -0.241045 0.151670 0.000000 0.000000 0.000000 
-0.155073 -0.240675 0.150801 0.000000 0.000000 0.000000 
-0.178417 -0.225521 0.152949 0.000000 0.000000 0.000000 
-0.191822 -0.210841 0.152855 0.000000 0.000000 0.000000 
-0.199055 -0.208682 0.150103 0.000000 0.000000 0.000000 
-0.203604 -0.190384 0.150627 0.000000 0.000000 0.000000 
-0.017056 -0.178949 0.150094 0.000000 0.000000 0.000000 
-0.199574 -0.171842 0.154223 0.000000 0.000000 0.000000 
0.269886 -0.155646 0.154840 0.000000 0.000000 0.000000 
0.247149 -0.149355 0.146704 0.000000 0.000000 0.000000 
-0.047780 -0.136817 0.157207 0.000000 0.000000 0.000000 
-0.052042 -0.121472 0.151788 0.000000 0.000000 0.000000 
-0.059332 -0.116844 0.153809 0.000000 0.000000 0.000000 
-0.195132 -0.114937 0.150727 0.000000 0.000000 0.000000 
0.209195 -0.112281 0.150690 0.000000 0.000000 0.000000 
-0.191482 -0.105593 0.150511 0.000000 0.000000 0.000000 
-0.077353 -0.098599 0.152303 0.000000 0.000000 0.000000 
-0.180463 -0.090610 0.151293 0.000000 0.000000 0.000000 
-0.088776 -0.088589 0.149693 0.000000 0.000000 0.000000 
-0.170549 -0.086376 0.152552 0.000000 0.000000 0.000000 
-0.114164 -0.086487 0.154487 0.000000 0.000000 0.000000 
-0.162797 -0.090428 0.154968 0.000000 0.000000 0.000000 
0.154635 -0.058866 0.159242 0.000000 0.000000 0.000000 
0.133454 -0.026627 0.153510 0.000000 0.000000 0.000000 
0.119637 -0.014223 0.156100 0.000000 0.000000 0.000000 
0.115039 -0.000870 0.151691 0.000000 0.000000 0.000000 
0.100755 0.014644 0.152472 0.000000 0.000000 0.000000 
0.111868 0.048728 0.155017 0.000000 0.000000 0.000000 
0.126808 0.049718 0.153843 0.000000 0.000000 0.000000 
0.125818 0.054804 0.151948 0.000000 0.000000 0.000000 
0.164246 0.094684 0.151468 0.000000 0.000000 0.000000 
0.154772 0.103205 0.154088 0.000000 0.000000 0.000000 
0.218167 0.113679 0.151412 0.000000 0.000000 0.000000 
0.180634 0.116442 0.153238 0.000000 0.000000 0.000000 
0.213092 0.118569 0.152128 0.000000 0.000000 0.000000 
0.140013 0.118685 0.151640 0.000000 0.000000 0.000000 
0.211196 0.125145 0.152509 0.000000 0.000000 0.000000 
0.182324 0.122199 0.153622 0.000000 0.000000 0.000000 
0.219399 0.122858 0.152246 0.000000 0.000000 0.000000 
0.186858 0.122821 0.151618 0.000000 0.000000 0.000000 
0.221959 0.130822 0.152283 0.000000 0.000000 0.000000 
0.183684 0.126643 0.151931 0.000000 0.000000 0.000000 
0.136728 0.125145 0.149880 0.000000 0.000000 0.000000 
0.184252 0.129738 0.148980 0.000000 0.000000 0.000000 
0.208881 0.132934 0.152674 0.000000 0.000000 0.000000 
0.175525 0.133483 0.154961 0.000000 0.000000 0.000000 
0.177186 0.135956 0.150589 0.000000 0.000000 0.000000 
0.311945 0.137141 0.151651 0.000000 0.000000 0.000000 
0.214487 0.138963 0.152565 0.000000 0.000000 0.000000 
0.221069 0.140922 0.152012 0.000000 0.000000 0.000000 
0.203533 0.145969 0.152811 0.000000 0.000000 0.000000 
0.198019 0.148846 0.152634 0.000000 0.000000 0.000000 
0.191404 0.157610 0.153366 0.000000 0.000000 0.000000 
0.250067 0.144458 0.150001 0.000000 0.000000 0.000000 
0.208618 0.156632 0.152549 0.000000 0.000000 0.000000 
0.254691 0.149294 0.152517 0.000000 0.000000 0.000000 
0.178332 0.157678 0.152499 0.000000 0.000000 0.000000 
0.171517 0.156713 0.151804 0.000000 0.000000 0.000000 
0.211206 0.163430 0.152508 0.000000 0.000000 0.000000 
0.188698 0.169345 0.153723 0.000000 0.000000 0.000000 
0.214409 0.170499 0.152596 0.000000 0.000000 0.000000 
0.181871 0.169956 0.152440 0.000000 0.000000 0.000000 
0.226883 0.178687 0.151104 0.000000 0.000000 0.000000 
0.219220 0.177226 0.152882 0.000000 0.000000 0.000000 
0.215396 0.183811 0.154397 0.000000 0.000000 0.000000 
0.224497 0.199370 0.153517 0.000000 0.000000 0.000000 
0.280064 0.197279 0.150403 0.000000 0.000000 0.000000 
0.176839 0.204881 0.154974 0.000000 0.000000 0.000000 
0.174569 0.210284 0.157435 0.000000 0.000000 0.000000 
0.227706 0.212662 0.150631 0.000000 0.000000 0.000000 
0.228929 0.226872 0.144967 0.000000 0.000000 0.000000 
0.224458 0.239844 0.151517 0.000000 0.000000 0.000000 
0.150672 0.257100 0.154002 0.000000 0.000000 0.000000 
0.139931 0.273624 0.153007 0.000000 0.000000 0.000000 
0.138336 0.295182 0.143868 0.000000 0.000000 0.000000 
0.194527 0.293687 0.155906 0.000000 0.000000 0.000000 
0.132147 0.316436 0.151594 0.000000 0.000000 0.000000 
0.128685 0.327973 0.155104 0.000000 0.000000 0.000000 
0.129480 0.338422 0.147909 0.000000 0.000000 0.000000 
0.175671 0.333974 0.148172 0.000000 0.000000 0.000000 
0.165563 0.349434 0.154599 0.000000 0.000000 0.000000 
0.173484 0.399390 0.152992 0.000000 0.000000 0.000000 
0.192255 0.404309 0.155109 0.000000 0.000000 0.000000 
0.153755 0.415367 0.153536 0.000000 0.000000 0.000000 
0.152643 0.422058 0.153742 0.000000 0.000000 0.000000 
0.214493 0.432326 0.159017 0.000000 0.000000 0.000000 
0.215915 0.446480 0.154052 0.000000 0.000000 0.000000 
0.158168 0.449130 0.150997 0.000000 0.000000 0.000000 
0.175362 0.465534 0.150345 0.000000 0.000000 0.000000 
0.203329 0.465953 0.151828 0.000000 0.000000 0.000000 
0.179775 0.465079 0.154112 0.000000 0.000000 0.000000 
-0.040770 -0.299841 0.154539 0.000000 0.000000 0.000000 
-0.103630 -0.288425 0.152169 0.000000 0.000000 0.000000 
-0.134406 -0.264252 0.149592 0.000000 0.000000 0.000000 
-0.005113 -0.247458 0.150223 0.000000 0.000000 0.000000 
-0.181129 -0.219151 0.154235 0.000000 0.000000 0.000000 
-0.170803 -0.223425 0.152205 0.000000 0.000000 0.000000 
-0.174640 -0.219968 0.153465 0.000000 0.000000 0.000000 
-0.199352 -0.197922 0.151834 0.000000 0.000000 0.000000 
-0.197020 -0.189730 0.154050 0.000000 0.000000 0.000000 
-0.031264 -0.160927 0.155904 0.000000 0.000000 0.000000 
-0.042651 -0.134175 0.151990 0.000000 0.000000 0.000000 
-0.188841 -0.120402 0.155051 0.000000 0.000000 0.000000 
-0.068097 -0.107783 0.153404 0.000000 0.000000 0.000000 
-0.086226 -0.095039 0.153555 0.000000 0.000000 0.000000 
0.190066 -0.093313 0.153533 0.000000 0.000000 0.000000 
0.145177 -0.042389 0.155964 0.000000 0.000000 0.000000 
0.211208 -0.031901 0.153277 0.000000 0.000000 0.000000 
0.103736 0.009045 0.154749 0.000000 0.000000 0.000000 
0.180415 0.009531 0.151155 0.000000 0.000000 0.000000 
0.159250 0.021829 0.153813 0.000000 0.000000 0.000000 
0.144714 0.028461 0.155822 0.000000 0.000000 0.000000 
0.144226 0.042977 0.153713 0.000000 0.000000 0.000000 
0.169763 0.104113 0.156958 0.000000 0.000000 0.000000 
0.148847 0.107506 0.153310 0.000000 0.000000 0.000000 
0.282479 0.121016 0.154724 0.000000 0.000000 0.000000 
0.261198 0.125783 0.150263 0.000000 0.000000 0.000000 
0.299693 0.126986 0.151269 0.000000 0.000000 0.000000 
0.263719 0.131610 0.154134 0.000000 0.000000 0.000000 
0.215499 0.130767 0.152654 0.000000 0.000000 0.000000 
0.307038 0.135564 0.153452 0.000000 0.000000 0.000000 
0.258090 0.134381 0.151959 0.000000 0.000000 0.000000 
0.209339 0.147435 0.152564 0.000000 0.000000 0.000000 
0.178290 0.146371 0.152834 0.000000 0.000000 0.000000 
0.175818 0.152035 0.153414 0.000000 0.000000 0.000000 
0.182617 0.151395 0.152936 0.000000 0.000000 0.000000 
0.184883 0.157261 0.153316 0.000000 0.000000 0.000000 
0.196702 0.154556 0.153140 0.000000 0.000000 0.000000 
0.204082 0.152382 0.152846 0.000000 0.000000 0.000000 
0.201456 0.158302 0.153130 0.000000 0.000000 0.000000 
0.255853 0.160350 0.151201 0.000000 0.000000 0.000000 
0.187185 0.163419 0.153389 0.000000 0.000000 0.000000 
0.194787 0.162483 0.153613 0.000000 0.000000 0.000000 
0.203095 0.163984 0.153285 0.000000 0.000000 0.000000 
0.180170 0.163871 0.152353 0.000000 0.000000 0.000000 
0.206865 0.170673 0.153478 0.000000 0.000000 0.000000 
0.263770 0.173936 0.155447 0.000000 0.000000 0.000000 
0.211185 0.177622 0.153885 0.000000 0.000000 0.000000 
0.223315 0.191704 0.153702 0.000000 0.000000 0.000000 
0.270553 0.195172 0.154390 0.000000 0.000000 0.000000 
0.229009 0.205827 0.149093 0.000000 0.000000 0.000000 
0.164117 0.231497 0.157830 0.000000 0.000000 0.000000 
0.149547 0.251108 0.152199 0.000000 0.000000 0.000000 
0.144145 0.263635 0.158852 0.000000 0.000000 0.000000 
0.131643 0.301381 0.154044 0.000000 0.000000 0.000000 
0.190989 0.296830 0.150684 0.000000 0.000000 0.000000 
0.186880 0.312535 0.151219 0.000000 0.000000 0.000000 
0.172792 0.344960 0.154381 0.000000 0.000000 0.000000 
0.155450 0.351288 0.153105 0.000000 0.000000 0.000000 
0.118507 0.352942 0.151600 0.000000 0.000000 0.000000 
0.149281 0.353180 0.151276 0.000000 0.000000 0.000000 
0.115436 0.358642 0.157129 0.000000 0.000000 0.000000 
0.143036 0.357254 0.152818 0.000000 0.000000 0.000000 
0.133635 0.361942 0.151259 0.000000 0.000000 0.000000 
0.117107 0.362553 0.153392 0.000000 0.000000 0.000000 
0.127213 0.363673 0.148758 0.000000 0.000000 0.000000 
0.156048 0.438557 0.148395 0.000000 0.000000 0.000000 
0.158254 0.444617 0.146367 0.000000 0.000000 0.000000 
0.208994 0.463136 0.150557 0.000000 0.000000 0.000000 
0.189308 0.468251 0.155084 0.000000 0.000000 0.000000 
-0.087192 -0.291712 0.157749 0.000000 0.000000 0.000000 
-0.027853 -0.285075 0.157351 0.000000 0.000000 0.000000 
-0.113965 -0.278770 0.154241 0.000000 0.000000 0.000000 
-0.137806 -0.251286 0.156814 0.000000 0.000000 0.000000 
-0.161830 -0.229090 0.155486 0.000000 0.000000 0.000000 
